# .PCD v0.7 - Point Cloud Data file format
VERSION 0.7
FIELDS x y z intensity
SIZE 4 4 4 4
TYPE F F F F
COUNT 1 1 1 1
WIDTH 1379
HEIGHT 1
VIEWPOINT 0 0 0 1 0 0 0
POINTS 1379
DATA ascii
4.0992665 1.1744834 -0.14664769 1
1.3414423 1.8165953 -0.11883068 2
4.0954404 -1.1491002 -0.16857719 0
3.7523494 4.3213105 -0.070799828 0
1.2871094 -1.828432 -0.14627612 4
4.1119828 1.1273689 -0.15230691 0
4.124145 -1.2108101 -0.18623364 0
3.6506302 -4.5026422 -0.13864958 1
3.7709715 4.2404332 -0.076309443 0
1.2706943 -1.849896 -0.13776362 0
4.1199284 1.0789763 -0.15533483 0
1.3751097 1.7758387 -0.13849533 0
4.1190324 -1.2611103 -0.18453979 0
3.7489748 4.1069026 -0.05747807 0
1.2581573 -1.8847958 -0.14314985 0
4.1188231 1.0282158 -0.15339637 2
1.3831704 1.7341 -0.12483609 1
4.0927873 -1.303287 -0.17091274 2
3.629648 -4.7039423 -0.14049745 1
3.7868972 4.0570908 -0.075182796 0
1.2453055 -1.9196463 -0.14827001 0
4.1212468 0.97913504 -0.15361381 0
1.3958004 1.7056197 -0.12505209 3
4.0867329 -1.3528602 -0.16885328 7
1.568495 0.41907153 -0.11920905 0
3.6023903 -4.7804575 -0.13087714 0
3.7777181 3.9479904 -0.064789772 0
1.2291821 -1.9439586 -0.1428144 8
4.1230502 0.93042302 -0.15355539 4
1.4092375 1.6804305 -0.12859499 3
4.0883856 -1.4053839 -0.17134857 0
1.5929341 0.40802309 -0.16642916 3
3.8013363 3.8840609 -0.074402332 0
1.2130195 -1.9679885 -0.13725233 10
4.1368775 0.88556421 -0.16053391 0
1.4208853 1.6522317 -0.12816155 2
4.0814137 -1.4541968 -0.16899383 3
1.5946834 0.38643441 -0.16443694 2
3.5671546 -4.9692149 -0.12482429 2
3.8266573 3.8240144 -0.085295558 0
1.1984839 -1.9988245 -0.13844717 4
4.1245804 0.83472311 -0.15284395 3
4.0781231 -1.5043027 -0.16878331 0
1.6106277 0.37104288 -0.19360316 0
3.8506951 3.7643807 -0.095521808 0
1.1829314 -2.0258486 -0.13614547 2
4.1286483 0.78873682 -0.15455139 3
1.4497058 1.6118014 -0.14469135 0
4.0944672 -1.5633231 -0.18010485 0
3.5212715 -5.1444831 -0.11260176 3
3.8400307 3.6661956 -0.08543241 0
1.1664064 -2.0490108 -0.13039768 0
4.1406174 0.74515218 -0.16095352 0
1.4555109 1.5749533 -0.1322825 1
4.098299 -1.6166056 -0.1842227 0
1.6045388 0.32568756 -0.17098999 0
3.4793093 -5.1979098 -0.093873024 0
3.842644 3.5869138 -0.083395123 0
1.1546674 -2.0936446 -0.14466286 0
4.1306186 0.69769001 -0.15496361 3
1.4665017 1.5506257 -0.13427126 2
4.0937605 -1.6656221 -0.18359137 0
1.6073124 0.30593589 -0.17289853 0
3.8684146 3.5363536 -0.095199943 0
1.1357203 -2.1052356 -0.12886298 0
4.1500039 0.65697825 -0.16578376 0
1.4769974 1.5265899 -0.13590682 3
4.0888529 -1.7141337 -0.18291855 0
1.605661 0.28511181 -0.16569102 2
3.4565802 -5.4209833 -0.098144531 3
3.8678505 3.4589171 -0.091658473 0
1.1199126 -2.1311047 -0.12634885 1
4.13447 0.61043298 -0.1569792 3
1.4839103 1.4969615 -0.12973583 4
4.0837154 -1.76194 -0.18217564 0
1.6058056 0.26539683 -0.1628536 2
1.1062205 -2.1677213 -0.13373148 2
4.1355305 0.56807661 -0.15769017 4
4.0665693 -1.8027288 -0.17460382 0
1.6078478 0.24664609 -0.16437078 2
3.8840632 3.3310907 -0.095152736 0
1.0897204 -2.189198 -0.1279906 1
4.1404228 0.5272432 -0.16054845 0
1.5005587 1.447705 -0.12758505 0
4.0571737 -1.8468211 -0.17157125 0
1.6075217 0.2277403 -0.16127884 0
3.3939695 -5.7057371 -0.086411476 3
3.8463395 3.2240505 -0.070119977 0
1.0734067 -2.2102563 -0.12234962 1
4.1361041 0.48607811 -0.15843761 4
1.5184927 1.4421207 -0.15064263 0
4.0438452 -1.8877865 -0.16627419 2
1.6132629 0.21078049 -0.17160106 0
3.8845856 3.1977155 -0.08982718 0
1.0579016 -2.2346852 -0.12002981 0
4.1356468 0.44664702 -0.15848804 2
1.5182486 1.4057622 -0.13164878 1
4.0228047 -1.9231867 -0.15657341 0
1.6146183 0.19320537 -0.17278504 0
3.3282249 -5.8414173 -0.061875343 1
3.9087746 3.1588769 -0.10139859 0
1.0454321 -2.2776966 -0.13384378 0
4.1217031 0.40674117 -0.1510632 0
1.5271778 1.386793 -0.13509965 2
1.6178916 0.17650092 -0.17837226 0
3.3337643 -5.99369 -0.07660675 0
3.8986573 3.0888548 -0.093016982 0
1.025723 -2.2707911 -0.10634887 0
4.1376739 0.37160599 -0.16049719 4
1.533958 1.365554 -0.13436699 2
4.0196466 -2.0132668 -0.15966451 0
1.6188641 0.1598684 -0.1793443 0
3.900202 3.033108 -0.091646552 0
1.0114372 -2.2977302 -0.10773492 0
4.1358752 0.33562213 -0.16002953 3
1.5436164 1.3502182 -0.14100134 4
4.0182066 -2.056766 -0.16134417 0
1.6154554 0.14314809 -0.17116606 0
3.923851 3.0006976 -0.1032685 0
0.99890536 -2.3358364 -0.11872303 0
4.1206975 0.29984835 -0.15197206 0
1.5494065 1.3300005 -0.13959157 3
4.0245733 -2.1039696 -0.16746497 0
1.6161201 0.12775944 -0.17192245 1
3.4113126 -6.6051397 -0.16445637 0
3.9530706 2.9755609 -0.11830592 0
0.98415089 -2.3542178 -0.11423874 1
4.1398911 0.26845223 -0.1633687 5
3.9670801 -2.1088741 -0.13600159 0
1.6124289 0.11247233 -0.16353369 2
3.416033 -6.7612042 -0.17864645 0
0.97163248 -2.3876917 -0.12246346 2
4.1500821 0.2375377 -0.16972029 4
4.0117636 -2.1780479 -0.16436362 0
1.6149726 0.098650038 -0.16861963 2
3.9464643 2.8735659 -0.11102784 0
0.95776081 -2.405087 -0.11861563 1
4.12959 0.20605421 -0.15867889 0
3.978013 -2.1942344 -0.14667201 0
1.6067836 0.084472425 -0.1510185 0
3.4085474 -7.026485 -0.1944623 2
3.9444103 2.8281188 -0.10826492 0
0.94441414 -2.4219716 -0.11513579 0
4.1262064 0.17738298 -0.1573292 0
1.5745962 1.2657028 -0.14595485 0
4.0008478 -2.2464523 -0.16202354 0
3.3905778 -7.1171179 -0.19155264 2
0.93208307 -2.4422269 -0.11516857 0
4.1443238 0.15134683 -0.16815877 4
1.5796154 1.2512852 -0.14669716 2
3.9795754 -2.2668762 -0.15146422 0
3.3557107 -7.1565976 -0.17568481 0
3.9603672 2.7630317 -0.11506867 0
0.92008388 -2.4580152 -0.11257088 0
4.1491904 0.12618946 -0.17150831 4
1.5823668 1.2351246 -0.14312136 3
3.9960017 -2.3113279 -0.16294444 0
3.9541154 2.7227383 -0.11035788 0
0.90882874 -2.4732037 -0.11051679 1
4.1495242 0.10260022 -0.17230177 1
1.589934 1.2273061 -0.15100014 4
3.9725704 -2.3256898 -0.15092552 0
1.5987403 0.038407877 -0.13416195 0
3.3374951 -7.3540249 -0.18085396 0
3.9746192 2.7075241 -0.12136936 0
0.89870226 -2.4918368 -0.11195433 1
4.1584363 0.08104486 -0.17787433 0
1.5934 1.2152661 -0.15066445 4
3.9647372 -2.3485432 -0.14806485 0
1.6199532 0.029756084 -0.17959821 0
3.3322036 -7.4530849 -0.18571603 0
1.4131839 -1.0104636 -0.09958303 0
3.9762919 2.6794808 -0.12154937 0
0.88848686 -2.4979069 -0.10498238 0
4.167222 0.061286267 -0.1833744 0
1.5963218 1.2041234 -0.14995325 4
3.9541357 -2.366976 -0.14344108 0
1.6241467 0.021121329 -0.18878949 0
3.3260283 -7.5416169 -0.18942058 0
1.4107192 -1.0202712 -0.10120952 0
3.9765627 2.6533854 -0.12113285 0
0.8810426 -2.5273089 -0.11661756 0
4.1498051 0.043014027 -0.17402542 5
1.5986385 1.1938698 -0.14891791 3
3.9445453 -2.3834145 -0.13933885 0
1.6218884 0.013198855 -0.18439472 0
3.3083477 -7.5872869 -0.18397319 0
0.87276542 -2.5321915 -0.11086845 0
4.1497135 0.027082875 -0.17447329 5
1.6023455 1.1869429 -0.15146041 3
3.979481 -2.4302695 -0.16144109 0
1.6217575 0.0062569408 -0.18449044 0
3.2920039 -7.6268258 -0.17886531 0
3.9839568 2.6154563 -0.12450004 0
0.8663553 -2.5484254 -0.11479616 0
4.1495686 0.013185401 -0.17487228 4
1.6036456 1.178506 -0.14970779 2
3.9573631 -2.4322591 -0.14968944 1
1.6216421 0.00022042482 -0.1845547 0
3.2914248 -7.7015262 -0.18484282 0
1.3979244 -1.0333884 -0.086824775 0
3.9874997 2.6008356 -0.12631118 0
0.86041349 -2.5560675 -0.11341238 0
4.1537757 0.0013245825 -0.17763424 4
1.6099985 1.1782088 -0.15952349 1
3.9544947 -2.445682 -0.14923036 1
1.6214842 -0.0048874984 -0.18462265 0
1.4063973 -1.0538303 -0.11442447 1
3.9683323 2.5713093 -0.11506498 0
0.85553837 -2.5630422 -0.11280787 0
4.1492686 -0.008506069 -0.17542791 2
3.9527533 -2.4571722 -0.14924872 0
1.6213601 -0.0090138074 -0.1846664 0
1.4090738 -1.0642399 -0.12568414 2
3.9837103 2.5719192 -0.12386489 0
0.8517437 -2.569428 -0.11289155 0
4.162159 -0.016227407 -0.18305612 0
3.9522371 -2.466603 -0.14977884 0
1.6212432 -0.012159945 -0.18470418 0
1.4137295 -1.0761331 -0.14139342 3
3.9906147 2.5689673 -0.12797177 0
0.84884632 -2.5711212 -0.11082089 0
4.1359172 -0.021575879 -0.16846216 0
3.967314 -2.484987 -0.15935504 0
1.62114 -0.01430049 -0.18473804 0
1.4157538 -1.0825236 -0.14910972 4
3.9962714 2.5681131 -0.13138974 0
0.8467797 -2.5681458 -0.10657966 0
4.1619558 -0.025141014 -0.1833204 0
3.9692822 -2.4903104 -0.16092002 0
1.6210532 -0.015410013 -0.18477035 0
1.4182762 -1.088056 -0.15712142 4
3.9934721 2.5637722 -0.13002968 0
0.84629768 -2.5725257 -0.10910892 0
4.1705894 -0.026365088 -0.1883533 0
3.979713 -2.4989688 -0.1673665 0
1.6209861 -0.015514465 -0.1848011 0
1.4151106 -1.0833428 -0.14888835 4
3.9930573 2.5642726 -0.13007259 0
0.84652698 -2.5682204 -0.10649741 0
4.161922 -0.025210192 -0.18337953 0
3.977025 -2.4946585 -0.16571546 0
1.6209388 -0.014613959 -0.18483019 0
1.415545 -1.0823995 -0.14925683 4
3.9949038 2.5697379 -0.13156474 0
0.84806883 -2.5673313 -0.10758662 0
4.1749926 -0.022028817 -0.19077754 0
3.9755657 -2.4882646 -0.16465998 0
1.6209099 -0.012734277 -0.18485677 0
1.4102616 -1.0712565 -0.13336456 3
3.9884157 2.5715895 -0.12823093 0
0.85092676 -2.5697803 -0.11247861 0
4.1663728 -0.016593056 -0.18575823 0
3.9537435 -2.4634285 -0.15129471 0
1.6209297 -0.0098745264 -0.18486392 0
1.4054723 -1.059268 -0.1177578 2
3.9914105 2.5839596 -0.13043666 0
0.85463238 -2.5675862 -0.11515522 0
4.1664648 -0.0090330075 -0.1856463 2
3.972712 -2.466666 -0.16194201 1
1.6209601 -0.00608675 -0.184865 0
3.300868 -7.797492 -0.20030606 0
1.4027061 -1.0487646 -0.10658336 0
3.9895942 2.5955069 -0.12995756 0
0.85866523 -2.5527256 -0.10966003 0
4.1665573 0.00063853548 -0.1855036 4
1.6089423 1.17904 -0.15951371 1
3.9820826 -2.4596012 -0.16676521 2
1.62315 -0.0013470687 -0.1893698 0
3.3056054 -7.7474384 -0.19892001 0
1.4034657 -1.0420411 -0.10401452 0
3.9936509 2.6147649 -0.13292122 0
0.86444676 -2.5493009 -0.11378491 0
4.1622863 0.012406109 -0.18285966 4
1.6041732 1.181927 -0.15368032 2
3.9636307 -2.428972 -0.15489912 2
1.6211255 0.0043029035 -0.18479216 0
3.3354752 -7.7601862 -0.21574318 0
1.4062567 -1.0367476 -0.10588992 0
4.010675 2.6473584 -0.14352477 0
0.8702085 -2.5292263 -0.10670185 0
4.1709991 0.026279995 -0.18763125 5
1.6026168 1.1905658 -0.15542257 3
1.6233306 0.01090417 -0.18925524 0
3.3232682 -7.6379542 -0.19973171 0
1.418901 -1.0442405 -0.13305187 0
4.0015345 2.662113 -0.13886583 0
0.87856835 -2.5325356 -0.11822951 0
4.1753435 0.04229122 -0.18982792 5
1.6005113 1.2001163 -0.15682733 3
3.9696999 -2.391643 -0.15628612 0
1.6213 0.018334821 -0.18462956 0
3.3422668 -7.596911 -0.20660305 0
1.4210796 -1.0349008 -0.13131499 0
3.9911792 2.678674 -0.13360059 3
0.886774 -2.5192578 -0.11843455 0
4.1665306 0.06009737 -0.18463171 1
1.5960424 1.2081301 -0.15391576 4
3.9906781 -2.3820708 -0.16735792 0
1.6213892 0.026645051 -0.18449247 0
3.3578887 -7.5359445 -0.21007133 0
1.4204632 -1.0202286 -0.12149704 0
3.9831438 2.6999304 -0.12969756 0
0.89523834 -2.4974084 -0.11325967 0
4.1750488 0.080186322 -0.18916917 0
1.5947404 1.2219259 -0.15853989 4
4.0163569 -2.3731129 -0.18105435 0
1.6235834 0.035944682 -0.18883908 0
3.9948692 2.7405105 -0.13740873 0
0.90517771 -2.4830055 -0.11459386 0
4.2008023 0.10273102 -0.20354533 0
1.5875087 1.229073 -0.15099251 4
4.0173354 -2.3439467 -0.17992306 0
4.0017719 2.7800434 -0.14231193 0
0.9159351 -2.4680061 -0.11650097 0
4.1786356 0.12567803 -0.1906085 4
1.5833824 1.2419869 -0.15098524 3
4.0079899 -2.3054194 -0.1725992 6
3.3979321 -7.285151 -0.21201408 0
3.9759543 2.7947137 -0.12834954 0
0.92744833 -2.4524136 -0.11895633 0
4.1736827 0.15084854 -0.18743324 4
1.5805891 1.2582295 -0.15450799 3
3.4176714 -7.2049599 -0.21620607 3
3.9975381 2.8526118 -0.1419965 0
0.93894994 -2.4284544 -0.11568236 0
4.1685553 0.17765746 -0.18409288 0
1.5738049 1.2701069 -0.14981711 0
4.0507207 -2.264358 -0.19366419 0
3.9830539 2.8823466 -0.13481975 0
0.95224464 -2.415735 -0.12205732 1
4.1936407 0.20783783 -0.19779634 0
1.575294 1.2956281 -0.16428196 0
4.0470324 -2.2237806 -0.18921304 0
3.9776397 2.9225969 -0.13301015 0
0.96586919 -2.3985524 -0.12575006 2
4.1794162 0.23730011 -0.18910611 5
1.55883 1.2958256 -0.13941324 0
4.036356 -2.1769185 -0.18044794 0
1.6162789 0.10781898 -0.17305076 1
3.474828 -6.9251604 -0.22452331 0
3.9504676 2.9458849 -0.11858284 0
0.97823548 -2.3652592 -0.11740792 1
4.1866398 0.26977399 -0.19250762 5
1.5661914 1.3334078 -0.16857886 0
1.6221095 0.12334889 -0.18599188 2
3.4950812 -6.8266582 -0.22755384 1
3.9829755 3.0262718 -0.13920534 0
0.99290383 -2.3470807 -0.12174737 0
4.1978698 0.30414426 -0.19820547 0
1.5506718 1.337202 -0.14698541 2
4.0650759 -2.1110272 -0.19206834 0
1.6193496 0.13843979 -0.18074727 1
4.1784406 0.33711931 -0.18644285 3
1.5415821 1.3521055 -0.14056635 4
4.0629039 -2.0654209 -0.18799663 0
1.6206682 0.15476763 -0.18444443 0
3.4470875 -6.4141059 -0.17007089 0
3.9758043 3.1296778 -0.13849497 0
1.0231152 -2.3053596 -0.12814415 0
4.1890225 0.37427935 -0.19161367 4
1.5353706 1.3729163 -0.14153099 3
4.0915399 -2.037195 -0.20189667 0
1.6197355 0.17130108 -0.18350899 0
3.9634371 3.1769867 -0.13320017 0
1.0390335 -2.2857156 -0.1332593 0
4.1948142 0.41233802 -0.19420218 0
1.5286632 1.39431 -0.14209294 2
4.097425 -1.9938517 -0.20246243 0
1.6186192 0.18835409 -0.18246949 0
3.9399104 3.2156818 -0.12141848 0
1.0528891 -2.2504163 -0.12577963 0
4.187242 0.45005158 -0.18913555 2
1.5214255 1.4161482 -0.14234447 1
4.1188564 -1.9583797 -0.21208346 0
1.6194608 0.20630004 -0.18581605 0
3.4033706 -5.8792138 -0.10526705 0
3.9413075 3.281466 -0.12420619 0
1.0680224 -2.2224016 -0.12472868 0
4.1835232 0.48919776 -0.18638015 5
1.5153006 1.4413025 -0.14601445 0
4.0665617 -1.8802596 -0.17870057 0
1.615919 0.22371852 -0.18001723 0
3.4284048 -5.7908187 -0.11151826 3
3.9507339 3.358561 -0.13188219 0
1.0852435 -2.2052796 -0.1334666 1
4.1923094 0.53130317 -0.19066405 0
4.1270094 -1.8643479 -0.21103227 0
1.6121794 0.24141489 -0.17411017 0
1.1012887 -2.1802387 -0.13583529 0
4.2048383 0.57532853 -0.1972028 3
1.5044643 1.498855 -0.15976036 0
4.1132808 -1.806741 -0.20009983 0
1.6124978 0.26056853 -0.1770581 2
3.4824712 -5.6204953 -0.12680507 0
3.9011178 3.4490528 -0.10726631 0
1.1181874 -2.1585407 -0.14151514 1
4.1867208 0.61515594 -0.18643308 3
1.4904568 1.5136968 -0.14731014 4
4.1307831 -1.7651535 -0.20734882 0
1.6105168 0.27952948 -0.17536378 3
3.5201066 -5.5556488 -0.14150023 0
3.9340165 3.5605276 -0.12903178 0
1.1314355 -2.1180871 -0.13070571 0
4.2024808 0.66199774 -0.19484401 0
1.4791226 1.5345694 -0.14209902 3
4.1522012 -1.7245417 -0.21681893 0
1.6146386 0.30084276 -0.18698502 1
3.8996127 3.6008937 -0.11120689 0
1.150732 -2.1066532 -0.14638293 0
4.1962028 0.70573497 -0.19081855 4
1.4703544 1.5617162 -0.14395976 3
4.1455994 -1.6693411 -0.21006799 0
1.6081021 0.31907633 -0.17600131 0
3.5640736 -5.3644953 -0.14967966 0
3.9222953 3.7083297 -0.12735415 0
1.1662065 -2.0766039 -0.14542675 0
4.1936469 0.75100404 -0.18896496 0
1.4595797 1.5861411 -0.14177561 1
4.1586571 -1.6232842 -0.21467698 0
1.60971 0.34052834 -0.18279612 0
3.5827959 -5.2641931 -0.15152264 3
1.1815811 -2.0462914 -0.1443882 1
4.2075944 0.80081874 -0.19648492 3
1.4483495 1.6107635 -0.1392808 0
4.1352119 -1.5600407 -0.19817841 0
1.6048958 0.35993186 -0.17597473 0
3.859437 3.8056753 -0.095870495 0
1.1977351 -2.0193491 -0.14658093 3
4.2038412 0.84759533 -0.19402623 4
4.159761 -1.5183759 -0.20934355 0
1.6061177 0.3821241 -0.18238544 1
3.6268141 -5.0794644 -0.15995419 2
3.8972294 3.941885 -0.12149131 0
1.2137918 -1.9921049 -0.14871347 7
4.1867337 0.89174497 -0.18404675 0
1.4314632 1.6763257 -0.15144825 0
4.1759191 -1.4724407 -0.21569586 0
1.6008739 0.40194657 -0.1752404 2
3.8711374 4.0028386 -0.10923004 0
1.2316194 -1.9716066 -0.15762043 6
4.1988091 0.94398546 -0.19049561 4
1.4161322 1.6952555 -0.14064085 3
4.1713505 -1.4174845 -0.21009672 0
1.599575 0.4237965 -0.17683053 2
3.6598091 -4.8817911 -0.1612736 0
3.8754277 4.1049061 -0.11526573 1
1.246511 -1.9403577 -0.1560688 2
4.1932549 0.99228507 -0.18708956 0
1.403142 1.7205431 -0.13682592 3
4.1785836 -1.3672482 -0.21130991 9
1.5816963 0.43778315 -0.14264321 1
3.6958168 -4.8169985 -0.17489421 1
1.2571139 -1.8952177 -0.14036429 0
4.1997318 1.0446926 -0.19053102 2
1.3884463 1.7426668 -0.12913036 0
4.1647038 -1.3089771 -0.20050609 0
3.7161288 -4.7277446 -0.17831576 0
1.2775831 -1.884275 -0.15936327 0
4.1929569 1.0938303 -0.1864202 0
1.3771893 1.7746164 -0.13185132 0
4.1915936 -1.2659841 -0.21305728 4
3.7197697 -4.6147799 -0.17122865 0
1.5470672 -0.54605532 -0.11349571 0
3.8326132 4.3552103 -0.10098398 0
1.2895644 -1.8458638 -0.15013611 2
4.206542 1.149948 -0.19383013 0
4.1765962 -1.2077495 -0.20167112 0
3.7507229 -4.5451784 -0.18180215 0
1.5628545 -0.53164804 -0.13878405 2
3.81622 4.4407315 -0.095279694 0
1.3044426 -1.8175515 -0.1512059 2
4.2068434 1.2025175 -0.19382823 2
1.3569016 1.8489908 -0.14671063 0
4.190125 -1.159645 -0.20661783 3
3.7541633 -4.4365582 -0.17497671 0
1.5845821 -0.52012712 -0.17731524 2
3.8199673 4.5576653 -0.10167885 1
1.3201377 -1.7924427 -0.15563381 0
4.2023988 1.2537901 -0.19111991 0
1.3383441 1.8644134 -0.13089097 2
4.1905541 -1.1072416 -0.2042551 3
1.5922725 -0.49981073 -0.18475544 1
1.3344452 -1.7639412 -0.1562376 0
4.197372 1.3051995 -0.18805528 2
1.3231229 1.8898104 -0.12535 2
4.1988235 -1.0574982 -0.20633566 0
3.7753227 -4.2472568 -0.17120993 0
1.5957447 -0.47713095 -0.18318307 0
3.7927506 4.7501297 -0.094048381 0
1.3556203 -1.7548124 -0.17828918 0
4.1876092 1.3549869 -0.18245149 0
1.3097963 1.9220153 -0.12647045 0
4.1938887 -1.0041462 -0.20091641 7
3.7879369 -4.15872 -0.17087567 0
1.6071069 -0.45860788 -0.19925773 0
3.7553596 4.8125167 -0.075932264 0
1.3631582 -1.7100545 -0.16031814 0
4.1855855 1.4078968 -0.18115151 0
1.2940062 1.9471766 -0.1204958 0
4.2009749 -0.95457155 -0.20247114 0
3.7848101 -4.0520763 -0.16090846 0
1.604003 -0.43292427 -0.18402123 0
1.3776567 -1.6846769 -0.16377068 1
4.1830411 1.4607605 -0.17949748 0
1.2873002 2.0038786 -0.14487624 0
4.203197 -0.90415043 -0.20134926 3
3.811348 -3.9867294 -0.16984749 0
1.6087968 -0.41138047 -0.1864382 0
3.7501199 5.0542183 -0.082189918 1
1.3838922 -1.6405385 -0.14492214 0
4.188024 1.5170956 -0.18227053 0
1.2697781 2.0253398 -0.13503945 0
4.2176127 -0.8571496 -0.20710766 0
1.6092235 -0.38812092 -0.17977035 3
3.7097423 5.1159573 -0.062459707 0
1.4027452 -1.6278116 -0.16249275 0
4.1843615 1.5697973 -0.18009853 0
1.2503121 2.0392609 -0.11846566 2
4.2186875 -0.80731362 -0.20531631 5
3.8315332 -3.8205092 -0.167642 0
1.6156107 -0.36771959 -0.18632638 1
3.7070558 5.2433553 -0.065869689 3
1.4173546 -1.6057246 -0.1687628 0
4.1721587 1.6183776 -0.17319381 0
1.2365284 2.0744655 -0.12182951 2
4.2190828 -0.75807279 -0.20330107 6
3.8452258 -3.7455099 -0.16908419 0
1.6196642 -0.34656307 -0.18827641 0
1.4217613 -1.5625215 -0.14868164 0
4.2037253 1.6878058 -0.19099462 0
1.21887 2.0948844 -0.11185944 0
4.2231784 -0.71030188 -0.20335805 0
1.6234818 -0.3256216 -0.19006395 0
1.4396212 -1.5498008 -0.16553426 0
4.2026067 1.7417777 -0.19036925 0
1.2021215 2.1185877 -0.10516834 0
4.2223649 -0.66235727 -0.20071959 7
3.8802958 -3.6115615 -0.17713118 0
1.6270401 -0.30489352 -0.19170904 0
3.653302 5.558876 -0.048914433 0
1.455822 -1.5340357 -0.17843497 1
4.2010217 1.7953941 -0.18962038 0
1.1887544 2.1567631 -0.11145222 0
4.216639 -0.61441398 -0.19538498 0
1.6282604 -0.28379235 -0.18871009 0
1.4642811 -1.5037113 -0.17221057 3
4.1872101 1.842243 -0.18202186 0
4.2362566 -0.57152808 -0.20425355 6
3.9065852 -3.4768455 -0.18054998 0
1.631343 -0.26365566 -0.19005346 0
3.6423936 5.8265204 -0.053678513 1
1.4737078 -1.476686 -0.16935885 6
4.1849718 1.8947816 -0.18096769 0
1.1620386 2.2364547 -0.12667668 0
4.2337174 -0.52578169 -0.20081294 6
3.9159076 -3.4090443 -0.18029428 0
1.6341854 -0.24384615 -0.19125879 2
3.6168094 5.9235849 -0.043693542 0
1.4825776 -1.4499542 -0.16620278 10
4.1472354 1.9269698 -0.1599369 0
1.1405742 2.2363338 -0.10061944 2
4.2306013 -0.48087442 -0.19717848 0
1.634671 -0.22383034 -0.18783891 1
1.4940441 -1.4292704 -0.17030883 10
4.1134152 1.9600078 -0.14129281 0
1.1281376 2.2812791 -0.11274648 1
4.2356262 -0.43809271 -0.19814086 7
3.9300797 -3.2763369 -0.17760074 0
1.6392106 -0.20517035 -0.19327474 0
3.5870821 6.1640167 -0.037052631 1
1.5035372 -1.406045 -0.17027938 2
4.1689134 2.0441186 -0.17290592 0
1.1106696 2.2992632 -0.10274792 0
4.235837 -0.3955327 -0.19643772 1
1.6392298 -0.18598749 -0.1896081 0
3.5500822 6.2374477 -0.019824624 0
1.5125315 -1.3831559 -0.16994786 9
4.1349583 2.075299 -0.15422356 0
1.0947359 2.3245208 -0.099098206 0
4.2355046 -0.35399672 -0.19461834 4
3.9576914 -3.1673341 -0.18416357 0
1.6454988 -0.16840306 -0.19931114 0
1.5210795 -1.3606733 -0.16926169 9
4.1203718 2.1168997 -0.14649713 0
1.0795653 2.3532739 -0.09863162 0
4.2390809 -0.31387466 -0.19499683 6
3.9562469 -3.1015856 -0.17858195 0
1.6472642 -0.15041606 -0.19991565 0
3.5099375 6.4569759 -0.0066002607 0
1.5291185 -1.338588 -0.16827321 15
4.1554937 2.1887119 -0.16679192 0
1.0651302 2.3855743 -0.1013062 0
4.2160358 -0.27272925 -0.1806978 0
3.9665585 -3.049757 -0.18035102 0
1.6402394 -0.13167259 -0.18239963 0
1.5400577 -1.3222482 -0.17473459 15
4.1598225 2.2408907 -0.16977751 0
1.0496211 2.409749 -0.097897768 0
4.253612 -0.23723157 -0.20019877 4
3.9687972 -2.9928985 -0.17743361 0
1.6438024 -0.11503405 -0.18728971 0
1.5471694 -1.3010249 -0.17311609 14
4.1226382 2.2647302 -0.14944804 0
1.0359652 2.4452832 -0.10381043 0
4.2472119 -0.19969653 -0.1952554 5
3.9730501 -2.9403949 -0.17587411 0
1.6472377 -0.09882424 -0.19207382 0
3.4922464 6.8870406 -0.013891935 0
1.5537719 -1.280336 -0.17116332 10
4.1497707 2.3299496 -0.16536283 0
1.0209446 2.4686542 -0.10072839 0
4.2273078 -0.16289623 -0.18294823 0
1.6461593 -0.082721092 -0.18778169 0
3.4529819 6.9464817 0.0052113533 0
1.5668339 -1.2703699 -0.18463326 0
4.1283054 2.3611672 -0.15383184 0
1.0067041 2.4955156 -0.10093939 0
4.2594571 -0.12973396 -0.1996603 2
3.9946966 -2.8543615 -0.1811198 0
1.6493094 -0.067533009 -0.19239748 0
4.0998645 2.3856425 -0.13839912 0
0.9918431 2.5139384 -0.09548378 0
4.2563758 -0.096352972 -0.19681597 5
3.9915948 -2.8028021 -0.17569041 0
1.6457999 -0.052504852 -0.18344247 0
3.4263172 7.1893244 0.010002017 0
1.5776482 -1.2316329 -0.17919326 0
4.1385708 2.4560194 -0.16079831 0
0.9774313 2.5318754 -0.0903579 0
4.2442799 -0.064275727 -0.18900359 4
3.98366 -2.7499139 -0.16745293 0
1.6530688 -0.03866462 -0.1969142 0
3.2915425 6.980392 0.091432214 0
1.5822754 -1.2132256 -0.17599034 4
4.118474 2.4829712 -0.1500026 0
0.96311283 2.5452304 -0.082739592 0
4.253758 -0.034088098 -0.19328833 0
4.0094514 -2.7275937 -0.17933321 0
1.6515359 -0.025079843 -0.19232106 0
3.2318299 6.9611464 0.12459373 0
1.5863959 -1.195503 -0.17246008 5
4.1137018 2.519125 -0.14775705 0
0.95019913 2.5661352 -0.081383586 0
4.2586584 -0.005203974 -0.19504893 0
4.0060344 -2.6834919 -0.17402983 0
1.6542773 -0.012258295 -0.19667113 0
3.1830666 6.9631319 0.15086865 0
1.5936209 -1.1832952 -0.17659879 6
4.1095514 2.553777 -0.14582467 0
0.93894947 2.5986602 -0.089216113 0
4.2458606 0.022040587 -0.18708098 5
1.4160832 1.0118573 -0.037517548 0
4.004796 -2.6439438 -0.17025232 0
1.6547596 -0.00010921486 -0.19647646 0
3.1478782 6.9959517 0.16854692 7
1.5967132 -1.1669855 -0.17245364 7
4.1132812 2.592514 -0.14831042 0
0.92680764 2.6145182 -0.085811973 0
4.237289 0.047554135 -0.18146622 4
4.0023522 -2.6059999 -0.16588175 2
1.6529958 0.011283001 -0.19174325 0
3.1023858 6.9903607 0.19349515 2
1.6011517 -1.1538086 -0.17198646 7
4.0852227 2.6046836 -0.1326654 0
0.9157213 2.6338894 -0.085828662 0
4.2286029 0.071284838 -0.17578685 0
1.6555316 0.021941731 -0.19598138 0
3.0611532 6.9879036 0.21610844 7
1.6069436 -1.1437116 -0.17524338 6
4.1012926 2.6486931 -0.14198542 0
0.90507007 2.6487112 -0.083410382 0
4.2329178 0.093521103 -0.1773814 0
1.4552858 1.117304 -0.16278148 3
4.0115771 -2.5491719 -0.16609311 0
1.6493235 0.031571545 -0.18218982 0
3.0181677 6.9700017 0.24045563 0
1.6085253 -1.1297349 -0.17017424 5
4.0750051 2.6573722 -0.12727845 0
0.89524758 2.6629429 -0.081622601 0
4.2371783 0.11408132 -0.17892337 4
1.4527968 1.1279964 -0.1636616 3
4.0305104 -2.5357466 -0.17501557 0
3.0010536 7.0203748 0.24817073 0
1.6133204 -1.1212292 -0.17284155 4
4.0856061 2.6925507 -0.13330686 0
0.88802916 2.701246 -0.097482324 0
4.2457833 0.13305382 -0.18284011 5
1.450613 1.1379498 -0.16480708 3
4.0302858 -2.5102746 -0.17288065 0
2.9623408 6.9949179 0.27071178 7
1.6101038 -1.1043661 -0.15911984 2
4.0971088 2.7261508 -0.139727 0
0.87861437 2.6939425 -0.08257103 0
4.2368636 0.14956832 -0.17710245 4
1.4441376 1.1398627 -0.15395904 3
4.0106864 -2.4730942 -0.1596868 5
2.9210675 6.9492559 0.29584217 5
1.6214969 -1.1066561 -0.17730796 0
4.0846534 2.7379248 -0.13256717 2
0.87129587 2.7024453 -0.079750419 0
4.223568 0.16379203 -0.16898322 3
1.4459176 1.1530691 -0.16382039 3
2.9007618 6.9581547 0.30733168 0
1.6267877 -1.102892 -0.1831398 0
4.0910621 2.762279 -0.13602066 0
0.86521798 2.7145166 -0.080410123 0
4.2277703 0.17692603 -0.1705792 0
1.4418333 1.1557831 -0.15764642 3
4.0331535 -2.4531837 -0.17002559 0
2.8878374 6.979784 0.31453824 0
1.6201441 -1.0864439 -0.16449833 0
4.0843501 2.7732682 -0.13201022 0
0.86021566 2.7260311 -0.081748962 0
4.2189221 0.18745837 -0.16490829 0
1.4413271 1.1625569 -0.15992117 3
4.0135469 -2.4246051 -0.15734279 0
2.8749213 6.9907184 0.32198942 0
1.6225507 -1.0822192 -0.16571355 0
4.085938 2.7881119 -0.13260972 0
0.85548443 2.7246044 -0.07535851 0
4.2145004 0.19611818 -0.16170657 0
1.4397136 1.1660522 -0.15843904 3
4.0401955 -2.4326448 -0.1719811 0
2.8637385 6.9956207 0.32888019 0
1.6244687 -1.0788831 -0.16665578 0
4.078145 2.7922621 -0.12782788 0
0.8527903 2.7391047 -0.080963016 0
4.2319674 0.20395431 -0.1706934 0
1.4384911 1.1687304 -0.15729177 3
4.0218635 -2.4107158 -0.16043079 0
2.8526006 6.9898877 0.33611274 0
1.6239648 -1.074231 -0.1632812 0
4.0715737 2.7944334 -0.12374806 0
0.85009283 2.7323542 -0.073304296 0
4.2626615 0.2105509 -0.18690968 0
1.4392835 1.1730273 -0.16053915 3
4.0390244 -2.4172678 -0.16970098 0
2.8403535 6.9686809 0.34428442 0
1.6287787 -1.0771856 -0.17173409 0
4.0698509 2.797435 -0.12239027 0
0.84962028 2.7457321 -0.080367684 0
4.2278357 0.2111928 -0.16704774 0
1.4389735 1.1740502 -0.16003859 3
4.0293708 -2.4073012 -0.16350615 0
2.8456805 6.9930472 0.34112501 0
1.6273463 -1.0744096 -0.16776097 0
4.072916 2.8014209 -0.12364817 0
0.8489325 2.7336793 -0.071442485 0
4.2280779 0.21169196 -0.16655433 0
1.4375564 1.171751 -0.15582263 3
4.0223041 -2.4019074 -0.15890682 0
2.8540156 7.0161314 0.33621562 0
1.6254203 -1.072556 -0.16351366 0
4.0808334 2.8062479 -0.12762606 0
0.85046703 2.7416954 -0.077333689 0
4.2284102 0.21011943 -0.16612232 0
1.4397099 1.1735348 -0.1600697 3
4.0287399 -2.4091556 -0.16228855 0
2.8539639 7.0003633 0.33723342 0
1.6287898 -1.0782912 -0.17111838 0
4.0829239 2.8032529 -0.12832367 0
0.85289764 2.744993 -0.081191182 0
4.2200508 0.20596127 -0.16099083 0
1.4392309 1.169558 -0.15651011 3
4.0194559 -2.4077151 -0.15658033 0
2.8614461 6.9973493 0.33380771 0
1.6240041 -1.0760312 -0.16226625 0
4.0651469 2.7807198 -0.11762536 0
0.85544366 2.7311578 -0.074626207 0
4.2161446 0.20000784 -0.15833044 0
1.440769 1.1672004 -0.15734446 3
4.0236573 -2.4188633 -0.1589247 0
2.870482 6.9883437 0.32959914 0
1.6245015 -1.0813717 -0.16525877 0
4.0769286 2.7795556 -0.12350297 0
0.85950172 2.7250195 -0.074407578 0
4.2516756 0.19415806 -0.17742229 0
1.4412091 1.1615536 -0.15443206 3
4.0340209 -2.4372811 -0.16504252 0
2.878195 6.9640021 0.3268218 0
1.6207075 -1.0831304 -0.15988421 0
4.08283 2.7706561 -0.12599683 0
0.86483014 2.7224021 -0.077782631 0
4.2434988 0.18377616 -0.17252111 0
1.4452059 1.1599734 -0.15998185 3
4.0177174 -2.4389226 -0.15569282 0
2.903645 6.9851322 0.31276429 1
1.6221739 -1.092517 -0.16633666 0
4.0793304 2.7511175 -0.1230253 0
0.8706696 2.7109251 -0.076302052 0
4.230988 0.17122354 -0.16525829 2
1.4465976 1.1526865 -0.1576612 3
4.0366845 -2.4693813 -0.16702664 0
2.9261997 6.9862008 0.30100119 5
1.6193571 -1.0982758 -0.16442728 0
4.0734115 2.7268729 -0.11854506 2
0.87796152 2.7070525 -0.081261992 0
4.2228751 0.15695599 -0.16044879 4
1.4499741 1.1470058 -0.15972698 3
4.0144377 -2.4720657 -0.15458524 5
2.9549651 6.9952116 0.28596473 7
1.6141651 -1.1025767 -0.15822756 1
4.0829129 2.7123053 -0.12250423 0
4.2409935 0.14181089 -0.17020047 4
1.4506348 1.1356839 -0.15390658 3
4.0201135 -2.4982288 -0.15853727 2
1.6160855 -1.1168988 -0.16780615 3
0.89456838 2.6852124 -0.084779501 0
4.2284822 0.12362355 -0.16304588 4
1.4564254 1.130762 -0.16064358 3
4.0137 -2.5181 -0.1556288 0
3.0200162 7.0042624 0.25223839 0
1.6118615 -1.1251704 -0.16502571 5
4.1016178 2.6746936 -0.12995017 0
0.90442097 2.6754789 -0.088936687 0
4.2246475 0.10389578 -0.16079593 2
1.459447 1.120286 -0.15943933 3
4.0169382 -2.5479536 -0.15854478 0
1.6587837 0.029836878 -0.1887418 0
3.0482054 6.9811873 0.23903501 6
1.6090271 -1.1365443 -0.1659795 5
4.1033945 2.6462464 -0.12932062 0
0.91341555 2.6447577 -0.079384089 0
4.2645593 0.083519854 -0.18260968 0
1.4627898 1.1090829 -0.15847516 2
3.9938715 -2.5601258 -0.14618528 0
1.6610577 0.019863343 -0.19332159 0
3.0790904 6.9566841 0.22446287 8
1.6075857 -1.1510644 -0.17062533 7
4.1024122 2.6133125 -0.12714756 0
0.92519939 2.6379752 -0.087611556 0
4.2430282 0.059934363 -0.17073834 0
4.0090675 -2.6045549 -0.1563853 0
1.6567245 0.0089878524 -0.18438864 0
3.1299703 6.9816442 0.19712818 5
1.6001103 -1.1592457 -0.16298115 7
4.0912557 2.5705914 -0.11922121 3
0.93704164 2.6225178 -0.090591431 0
4.2258086 0.035025582 -0.16115177 5
3.9837635 -2.6197383 -0.14308858 2
1.658936 -0.0025379348 -0.18889201 0
1.5995431 -1.1777056 -0.17098248 6
0.94969261 2.6065371 -0.094037771 0
4.2434649 0.0088695353 -0.1708461 5
4.0034242 -2.6734374 -0.15623868 0
1.6588855 -0.014821676 -0.18886232 0
3.2188559 6.9669175 0.15222538 0
1.5911865 -1.1872252 -0.16275775 5
4.085206 2.4921153 -0.11257493 0
0.95974362 2.5577455 -0.074553967 0
4.2303019 -0.018913731 -0.1635803 0
3.9829266 -2.6972117 -0.1460501 0
1.6587447 -0.027789125 -0.1887908 0
3.2592487 6.9366798 0.13277674 0
1.5877964 -1.2046825 -0.16617119 4
4.1234093 2.4803269 -0.13254893 0
0.97352463 2.5408332 -0.078749537 0
4.2344365 -0.048241545 -0.16593266 0
4.0034084 -2.7572153 -0.16001344 0
1.6585648 -0.041412208 -0.18863881 0
3.3566949 7.0510664 0.07704258 0
1.5839424 -1.222849 -0.16923332 1
4.1365209 2.448056 -0.13848019 0
0.98837197 2.5274136 -0.086292505 0
4.2471418 -0.079216383 -0.17294812 5
3.9805346 -2.7837527 -0.14873886 0
1.6582953 -0.055691015 -0.18841779 0
1.574211 -1.2341629 -0.1601541 0
1.0028087 2.5054867 -0.08827281 0
4.2551794 -0.11166899 -0.17750621 5
3.9774649 -2.8291421 -0.14919114 0
1.653545 -0.070249625 -0.17913687 0
1.5746417 -1.2611634 -0.17440379 0
4.1341538 2.3586595 -0.13455975 0
1.0186956 2.4910295 -0.096547484 0
4.2147813 -0.14362809 -0.15543437 0
3.9799447 -2.8819437 -0.15313005 0
1.6573853 -0.086053044 -0.18776739 0
1.5675199 -1.2786536 -0.17257643 7
4.1446729 2.3199289 -0.1390574 0
1.0334773 2.4641936 -0.096104741 0
4.2616048 -0.18062848 -0.18143845 0
3.9742265 -2.9300885 -0.15236115 0
1.654562 -0.10184808 -0.18282008 0
1.5599046 -1.2966418 -0.17046356 14
4.2511902 -0.21629691 -0.17597997 6
3.9266233 -2.9422772 -0.12712491 0
1.6559191 -0.11862667 -0.18678582 0
1.5535021 -1.3177259 -0.17196226 15
4.1474442 2.2265658 -0.13792336 0
1.06374 2.4093168 -0.095769167 0
4.2141838 -0.25114053 -0.15593374 0
3.9354775 -3.0079327 -0.13526845 0
1.6549189 -0.1357144 -0.18616664 0
1.5432651 -1.3340195 -0.16533315 15
4.1547551 2.1820817 -0.14052343 0
1.0816171 2.3968723 -0.10811985 0
4.2510729 -0.29249737 -0.17666852 0
3.9661655 -3.0970073 -0.15667522 0
1.658057 -0.1539346 -0.19444454 0
1.5325783 -1.3506044 -0.15848029 11
1.0933422 2.3451567 -0.089798331 0
4.2438645 -0.33164659 -0.17310822 6
1.6522834 -0.17123915 -0.18467152 0
1.5280465 -1.3784261 -0.16676772 8
4.1619477 2.0855207 -0.14123511 0
1.1096009 2.3203218 -0.093081117 0
4.2536077 -0.3736051 -0.17905927 0
3.8939779 -3.1545949 -0.12069929 0
1.6506875 -0.18964779 -0.18375337 0
3.5731699 6.1769824 0.0047889948 0
1.516439 -1.3957318 -0.1593256 4
4.1654291 2.0361052 -0.14148414 0
1.1266787 2.2989016 -0.099627018 0
4.2628803 -0.41672921 -0.18476832 0
3.9360735 -3.2641609 -0.1495862 0
1.6509978 -0.20892884 -0.18722558 1
1.5076516 -1.4188635 -0.15926528 7
4.1258326 1.9612727 -0.11775649 0
1.1431983 2.2733011 -0.10305667 1
4.2368221 -0.45645991 -0.17109239 6
1.648934 -0.22814974 -0.18608677 1
1.4983582 -1.4423352 -0.15889597 11
4.1877093 1.9438604 -0.15041769 0
1.1574546 2.2359669 -0.097022533 1
4.2407346 -0.50081271 -0.17397285 0
3.9273105 -3.3991406 -0.152668 0
1.6444958 -0.2471763 -0.18033969 1
3.6374516 5.8587646 -0.013956547 0
1.4917064 -1.4718506 -0.16578579 7
4.2397513 -0.54534286 -0.17426658 8
3.9158616 -3.4631145 -0.15030992 0
1.646296 -0.26825571 -0.1878829 0
1.4829488 -1.4989257 -0.16848981 4
4.2053261 1.8463322 -0.15696776 0
1.1914062 2.1868842 -0.10704947 0
4.2425652 -0.59132928 -0.17669487 2
3.9153793 -3.5416744 -0.15480638 0
1.6392219 -0.28720272 -0.17741597 0
3.6807992 5.6514392 -0.027115941 0
1.4707038 -1.5204588 -0.16330791 1
4.2036614 1.7915299 -0.15468228 0
1.2088712 2.1636701 -0.11366904 0
4.2361813 -0.63645893 -0.17408371 5
3.8915765 -3.5970259 -0.14552379 0
1.6405125 -0.3090587 -0.18466771 0
3.6977687 5.5409007 -0.031029224 0
1.4609942 -1.5480672 -0.16534698 0
4.2176366 1.7442917 -0.16115379 0
1.2200375 2.1143527 -0.097417831 0
4.2421889 -0.68463075 -0.17836833 6
1.6373039 -0.32980877 -0.18282664 0
1.4550531 -1.5849962 -0.17820847 0
4.2231078 1.6926342 -0.16317332 0
1.2382123 2.094321 -0.10707378 0
4.2519097 -0.73435473 -0.18476021 0
3.8702772 -3.7446506 -0.14349604 0
1.6359529 -0.35160571 -0.18529642 0
3.7214081 5.3066974 -0.032993913 1
1.4414603 -1.6071216 -0.17208147 0
4.2322612 1.6423423 -0.16727173 0
1.2544565 2.0666211 -0.11015391 2
4.2437949 -0.781201 -0.18134272 7
3.8454909 -3.8050954 -0.13419938 0
1.6301093 -0.37192431 -0.17871618 1
1.4260919 -1.6262362 -0.16200209 0
4.2368755 1.5898732 -0.16895115 0
1.2715755 2.0423114 -0.1163888 1
4.2307906 -0.82735151 -0.17535341 0
3.8634746 -3.9203136 -0.15121555 0
1.6261891 -0.39321691 -0.17641366 3
3.7713146 5.1260157 -0.051252842 0
1.4063872 -1.6359345 -0.14071202 0
4.2205276 1.5281446 -0.15924096 0
4.24719 -0.88105071 -0.18562722 3
3.8445134 -3.9927902 -0.14584577 0
1.6241144 -0.41551068 -0.17841482 0
1.401118 -1.6800553 -0.15944505 0
4.1993322 1.465094 -0.14696503 0
1.307418 1.9998713 -0.13540709 0
4.228704 -0.92670739 -0.17679846 4
1.6239184 -0.43896255 -0.18466568 0
3.8093865 4.9323807 -0.062973738 0
1.386049 -1.7022868 -0.15229952 1
4.210465 1.4158343 -0.15249884 0
1.3229597 1.9711989 -0.13799262 0
4.2394691 -0.98051941 -0.18417084 3
3.8364835 -4.183517 -0.15423775 0
1.6172025 -0.45951918 -0.17746818 0
3.8148975 4.8175983 -0.060864806 0
1.3694131 -1.7212043 -0.14134526 0
4.2211046 1.3662175 -0.15785861 0
1.3324986 1.9250336 -0.12331069 0
4.2325377 -1.0301054 -0.18187737 4
3.8217072 -4.268363 -0.15207469 0
1.6185908 -0.48432168 -0.18780303 0
3.7844396 4.6517148 -0.037878156 0
1.3599017 -1.7595263 -0.15174055 0
4.2271237 1.3147776 -0.16061401 3
1.3460557 1.8928307 -0.12194753 2
4.2207422 -1.0785705 -0.1770283 0
1.6053462 -0.5013876 -0.16704488 1
3.8417518 4.6208506 -0.066716433 0
1.3438263 -1.7815403 -0.14395463 0
4.2325568 1.263244 -0.16316199 0
1.3579836 1.8571976 -0.11686563 2
4.225225 -1.1323529 -0.18129194 0
3.8043725 -4.4618931 -0.15578938 0
1.6082888 -0.52749491 -0.1814754 2
1.3344836 -1.8233918 -0.15723968 0
4.24159 1.2132069 -0.16773438 2
4.2458372 -1.1920009 -0.19460666 0
3.7881718 -4.5513225 -0.15327573 0
1.5947511 -0.54403067 -0.16048348 2
3.8898413 4.4640031 -0.085373402 0
1.3166931 -1.8418714 -0.14546716 2
4.2500916 1.163126 -0.17197526 0
1.3878868 1.8062005 -0.1267451 0
4.2364559 -1.2420635 -0.19128919 0
3.7785981 -4.652658 -0.15495002 0
1.5750241 -0.55619609 -0.12627327 0
3.9007194 4.3705301 -0.087288022 0
1.302036 -1.870227 -0.14413702 0
4.2494874 1.1105633 -0.17135501 0
1.4036397 1.7839408 -0.13482308 0
4.2390275 -1.2964944 -0.19469213 1
3.7830913 -4.777987 -0.16563332 0
3.881604 4.2398272 -0.071887732 0
1.2860637 -1.8950045 -0.13913715 0
4.2440095 1.0571473 -0.16803408 3
1.4124119 1.7453384 -0.12490475 2
4.2286186 -1.3461087 -0.19089794 5
1.6144447 0.45301211 -0.16334641 2
3.7478058 -4.8437514 -0.15146363 1
3.9231837 4.1927218 -0.091970086 0
1.2751169 -1.9368548 -0.15128422 0
4.254806 1.0091534 -0.17380655 0
1.4260411 1.7199191 -0.12883258 3
4.2301393 -1.4002088 -0.19381022 8
1.6227208 0.43385378 -0.17509127 3
3.7220263 -4.9251151 -0.14319777 0
3.8824568 4.0418601 -0.064331412 0
1.2587194 -1.9613061 -0.14591169 4
4.2607713 0.96023166 -0.1769073 3
1.4392788 1.6946124 -0.1324209 3
4.2270637 -1.4523857 -0.19418895 1
1.6307553 0.41466111 -0.18671679 2
3.9389682 4.0174336 -0.093340039 0
1.2432237 -1.9889662 -0.14388168 10
4.2746267 0.91404617 -0.1844238 0
1.4506602 1.6662312 -0.13212144 1
4.2276106 -1.5060254 -0.19663215 0
1.6280549 0.39095339 -0.17598319 0
3.6947477 -5.1318617 -0.14236915 3
3.9621186 3.9527435 -0.10308194 0
1.2276123 -2.016372 -0.14174283 3
4.2621794 0.86190194 -0.17755616 3
4.244019 -1.5664704 -0.20799506 0
1.6377718 0.37277508 -0.19176257 0
3.9870141 3.8919926 -0.11397886 0
1.211906 -2.043478 -0.13954401 1
4.2705445 0.81568271 -0.1821152 3
1.4793997 1.6255989 -0.14861703 0
4.2396407 -1.6177551 -0.20763934 0
1.6303134 0.34815788 -0.17176938 0
3.6563928 -5.3255682 -0.13475442 3
3.9922364 3.8104265 -0.1137346 0
1.1978678 -2.0775828 -0.1439029 0
4.2696877 0.76821375 -0.18168294 0
1.486423 1.5917075 -0.139956 2
4.2429481 -1.6723278 -0.21169817 0
1.6332104 0.32800078 -0.17387676 0
3.6267588 -5.4052548 -0.12434375 1
1.1819749 -2.1041756 -0.14152157 0
4.2768626 0.72318029 -0.18572748 3
1.4989238 1.5702808 -0.14562702 3
4.2419105 -1.7245659 -0.21323001 0
1.6401684 0.30947962 -0.18476605 1
4.0007105 3.6537147 -0.11243272 0
1.1644857 -2.1231458 -0.13246667 0
4.3051524 0.6828692 -0.20127857 0
1.5078959 1.5431108 -0.1435746 3
4.2245617 -1.7682935 -0.20565486 0
1.638361 0.28845426 -0.17764473 3
3.6059744 -5.6393218 -0.12892413 4
4.022892 3.5991864 -0.12243891 0
1.1509845 -2.1601214 -0.13992488 0
4.2853274 0.63430381 -0.19045377 3
1.5163083 1.5162938 -0.14116991 3
4.2230368 -1.819271 -0.2068789 0
1.6427684 0.26976159 -0.18378246 2
3.581161 -5.7304177 -0.12192559 0
4.0438395 3.5453167 -0.1317246 0
1.1358922 -2.1895146 -0.14068949 1
4.2952762 0.59207618 -0.19597089 4
4.2094178 -1.863305 -0.20133328 0
1.6448338 0.25075048 -0.18530846 1
4.0376534 3.4653885 -0.12572145 0
1.1186638 -2.2073393 -0.13177264 1
4.2917223 0.5485459 -0.19404459 0
1.5396044 1.4782606 -0.15402055 0
4.1722145 -1.8934827 -0.18231249 0
1.6424296 0.23105519 -0.17771935 0
3.5262413 -5.9022245 -0.10472858 2
4.0459738 3.4034491 -0.1280334 0
1.1023314 -2.2284739 -0.1262095 0
4.2963729 0.50730962 -0.19660282 4
1.5514231 1.4610733 -0.16189849 0
4.1939034 -1.9549656 -0.19660509 0
1.6462717 0.21340413 -0.18344831 0
4.0429516 3.3327417 -0.1241014 0
1.0875704 -2.2567751 -0.12713253 0
4.2962198 0.46645179 -0.19649327 3
1.5477102 1.4189727 -0.13541222 1
4.2036552 -2.0094211 -0.20409226 0
1.6477793 0.19569926 -0.18456519 0
4.0746865 3.2991621 -0.13990617 0
1.0735933 -2.2885025 -0.13133645 0
4.3043346 0.4278141 -0.20090091 0
1.5568004 1.39996 -0.13875723 3
4.1668158 -2.0358939 -0.18518364 0
1.6491258 0.17847067 -0.18555558 0
3.6465685 -6.6074548 -0.21606982 1
1.0538095 -2.2816114 -0.10400307 0
4.3033266 0.3892377 -0.20026052 5
1.5654366 1.381395 -0.14176154 4
1.6503166 0.16179809 -0.18642306 0
3.6531038 -6.775785 -0.23084927 0
4.0778308 3.1803012 -0.13738024 0
1.0432594 -2.3316958 -0.12427592 0
4.3062868 0.35242116 -0.20176554 3
1.5718235 1.3606052 -0.14061916 3
4.1750116 -2.1330848 -0.19361055 0
1.653542 0.14601499 -0.19166481 1
4.09238 3.1371768 -0.14351296 0
1.0311146 -2.3699975 -0.13512397 0
4.3044868 0.31646657 -0.20069408 0
1.5795147 1.3430623 -0.14293063 2
4.1812606 -2.18133 -0.19894433 0
1.6544347 0.13049689 -0.19232094 2
3.6485152 -7.0709128 -0.24831438 5
4.0920553 3.0828581 -0.1411562 0
1.0160778 -2.3846676 -0.12744713 0
4.3110838 0.28274384 -0.20419466 5
1.5956326 1.3393431 -0.16412616 0
4.1914945 -2.2309911 -0.206496 0
1.6552171 0.11561766 -0.1928705 2
3.6239178 -7.1613765 -0.24124026 0
4.0799575 3.0209448 -0.1321137 0
1.0026493 -2.4066072 -0.12627161 1
4.3086329 0.24980398 -0.20267308 6
1.6007111 1.3202199 -0.16189682 0
4.1717038 -2.2598581 -0.19696999 0
1.6515162 0.10093893 -0.18434548 0
3.5790946 -7.1966867 -0.21963489 0
4.1181097 3.0064943 -0.15146089 0
0.98974884 -2.4280648 -0.12539935 1
4.3102441 0.21874592 -0.20340979 0
1.6016619 1.2965649 -0.15156662 0
4.1639004 -2.2944477 -0.19405723 2
1.6455169 0.086899027 -0.17124212 0
4.1274796 2.9690084 -0.15449595 0
0.97693217 -2.4450922 -0.12182331 1
4.3115754 0.1893016 -0.20401394 0
1.6074815 1.2814484 -0.15247703 1
4.1641135 -2.3325868 -0.19569087 0
3.5835161 -7.4885745 -0.24044633 2
0.96564031 -2.4694622 -0.12475467 1
4.3214507 0.16193819 -0.20924425 5
1.614661 1.2695955 -0.15691054 2
4.1499977 -2.3590083 -0.18900836 0
3.5719802 -7.592216 -0.24069357 0
4.1351557 2.8929155 -0.1546427 0
0.95417577 -2.4853911 -0.12205803 0
4.3135943 0.13548118 -0.20474231 5
1.6194575 1.2559042 -0.15714395 3
4.1589651 -2.3991084 -0.19543374 0
3.5469649 -7.6537013 -0.23090744 0
4.1333833 2.8545618 -0.15172815 0
0.94351435 -2.5007677 -0.11983144 2
4.3230686 0.11151849 -0.20976329 2
1.6256132 1.2455213 -0.16091251 4
4.1352921 -2.4142234 -0.18303704 0
1.6055915 0.039053708 -0.086548686 0
1.4783726 -1.049643 -0.17918622 0
4.1443357 2.8296847 -0.1562413 0
0.93398345 -2.5195706 -0.12111557 3
4.3236246 0.089066423 -0.20988321 0
1.6274996 1.2308964 -0.15655971 4
4.1569643 -2.4588239 -0.19635499 0
1.6560613 0.031536244 -0.1900388 0
3.5504861 -7.9001527 -0.24778342 0
1.477409 -1.0628518 -0.18448627 0
4.1325927 2.7892699 -0.14818704 2
0.92523879 -2.5377636 -0.1230036 2
4.3416128 0.06885846 -0.21948433 0
1.6306883 1.2196468 -0.15576351 4
4.1389508 -2.4726505 -0.18685555 0
1.6541702 0.022649748 -0.18552065 0
3.5275574 -7.9436736 -0.23788476 3
1.4719248 -1.0684961 -0.17756176 2
4.155026 2.7796845 -0.15952086 0
0.91705334 -2.551399 -0.12245858 0
4.3287878 0.049958322 -0.21223521 4
1.6352576 1.2117399 -0.15852523 3
4.1513634 -2.5058484 -0.19454134 0
1.6566378 0.014712169 -0.18995643 0
3.5157971 -8.0084839 -0.23521376 0
1.4685342 -1.075529 -0.17504275 2
4.1439595 2.7461538 -0.15232515 0
0.90917927 -2.556411 -0.11660373 0
4.3290291 0.03336354 -0.21214354 5
1.6392666 1.2046864 -0.16098154 2
4.1281629 -2.5103498 -0.18169367 0
1.6569257 0.0075941435 -0.18985677 0
1.4672289 -1.0840009 -0.17691767 1
4.1566043 2.7346356 -0.15852594 0
0.90227139 -2.5607784 -0.11145461 0
4.3248644 0.018804627 -0.20952928 5
1.6408989 1.196076 -0.15915847 2
4.1391048 -2.5369411 -0.18812358 0
1.652823 0.0013926628 -0.18074644 0
3.5062187 -8.1471767 -0.23770571 0
1.4663572 -1.0916307 -0.1790657 1
4.1428084 2.7052619 -0.14998651 0
0.89732581 -2.5765874 -0.11585987 0
4.3294649 0.0064208191 -0.21161819 5
4.1291804 -2.5454161 -0.18254387 1
1.6618929 -0.003862255 -0.19857204 0
3.4788535 -8.1334372 -0.22144842 0
1.4627242 -1.0937696 -0.17323959 1
4.160069 2.7034042 -0.15894938 0
0.8927775 -2.583699 -0.11510801 0
4.3296642 -0.0038573882 -0.21126163 3
4.1278191 -2.5571978 -0.18158543 1
1.660033 -0.0081048049 -0.19390368 0
3.5071058 -8.2700539 -0.24424887 0
1.4595971 -1.0949873 -0.16772044 1
4.1652904 2.6951208 -0.16115546 0
0.88936013 -2.5901928 -0.11506438 0
4.3343134 -0.011948056 -0.21314943 1
4.1276894 -2.5669646 -0.18105638 0
1.662554 -0.0114038 -0.19822133 0
1.4617839 -1.1022916 -0.17487526 1
4.1729159 2.6917884 -0.164518 0
0.88672864 -2.592025 -0.11281872 0
4.3521614 -0.017845485 -0.22215509 0
4.1434007 -2.5854206 -0.18947041 0
1.6607114 -0.013592992 -0.19354331 0
1.4612334 -1.1040375 -0.17410457 1
4.1756616 2.6877894 -0.1651454 0
0.8852492 -2.5931706 -0.11139441 0
4.3525252 -0.021328585 -0.22145534 0
4.1458201 -2.590951 -0.18999755 0
1.6610389 -0.014750409 -0.19337559 0
1.4611675 -1.1048654 -0.17366219 1
4.1626935 2.6748412 -0.15680146 0
0.88490421 -2.5936749 -0.11073649 0
4.335443 -0.022416759 -0.21099842 0
4.1495643 -2.5942357 -0.19115984 0
1.6614192 -0.014848117 -0.19318962 0
1.4616187 -1.1047938 -0.17352688 1
4.159307 2.6725001 -0.1537354 0
0.8856951 -2.5935392 -0.11084509 0
4.3579249 -0.021459963 -0.22200465 0
4.1473532 -2.5899522 -0.18862855 0
1.6640098 -0.013944405 -0.19749618 0
1.4609776 -1.1014928 -0.16957748 1
4.1619358 2.6778965 -0.15393186 0
0.88737178 -2.5887172 -0.10879219 0
4.3366051 -0.01789967 -0.20892084 0
4.150054 -2.586293 -0.18870819 0
1.6644282 -0.011997229 -0.19730484 0
1.4640207 -1.1019528 -0.1741935 1
4.159718 2.6826425 -0.15132093 0
0.89099717 -2.5953283 -0.11636269 0
4.3328815 -0.0122486 -0.20535135 1
4.1504235 -2.5777309 -0.18725729 1
1.664896 -0.0090653319 -0.19709229 0
3.5121734 -8.2703228 -0.23609734 0
1.4659793 -1.0992203 -0.1749655 1
4.1814408 2.7091734 -0.16225195 0
0.89640605 -2.6093602 -0.13056636 0
4.3422966 -0.0044299182 -0.2090081 3
4.1520014 -2.5671334 -0.18631852 1
1.6653725 -0.0051485989 -0.19687378 0
3.511584 -8.212327 -0.2301662 0
1.4684439 -1.0955797 -0.1760416 1
4.173007 2.7153337 -0.15633833 0
0.90022886 -2.5865257 -0.1189518 0
4.3429704 0.0055555352 -0.2077719 4
1.6616993 1.2078323 -0.18628478 0
4.1474962 -2.549099 -0.18165231 1
1.6680477 -0.00029986526 -0.20113802 0
3.5178356 -8.1618176 -0.22817421 0
1.4713719 -1.0910735 -0.17740738 2
4.1596928 2.7206929 -0.14779174 0
0.90657902 -2.5831552 -0.12285519 0
4.3435926 0.017675925 -0.20655978 5
1.645962 1.1962095 -0.1566112 2
1.6575775 0.0054087252 -0.17842197 0
3.5320723 -8.1235075 -0.23126936 0
1.4731824 -1.083441 -0.17488372 2
4.152215 2.7337089 -0.14277804 0
0.91271472 -2.5631337 -0.11555398 0
4.3485365 0.031969957 -0.20775795 5
1.6450325 1.2049001 -0.1580478 2
4.1786237 -2.5336742 -0.19481409 0
1.662497 0.012096615 -0.18711805 0
3.5414691 -8.0606232 -0.23017645 0
1.4770818 -1.077212 -0.17677867 3
4.1648393 2.7658904 -0.1492393 0
0.92117125 -2.5585496 -0.12077129 0
4.3490028 0.048238069 -0.20657325 4
1.6436009 1.2145187 -0.15911984 3
4.1738358 -2.5068555 -0.18960857 0
1.6608014 0.019567244 -0.18232071 0
3.5588789 -8.00984 -0.23416662 0
1.4797895 -1.0679204 -0.17475677 2
4.1689377 2.7943974 -0.15101981 0
0.92957217 -2.541332 -0.11771619 1
4.344933 0.066419847 -0.20306599 1
1.6396934 1.2225598 -0.15596187 4
4.1663828 -2.4755161 -0.18267882 0
1.6635346 0.028010104 -0.18644774 0
1.4829283 -1.0577908 -0.172979 0
4.1644626 2.8191137 -0.14829528 1
0.93884891 -2.5235219 -0.11526084 3
4.3275867 0.086236008 -0.19232881 0
1.6353114 1.2314394 -0.15245295 4
4.189445 -2.4633443 -0.19300032 0
1.6662204 0.037347894 -0.1905452 0
1.4880724 -1.0491018 -0.17559516 0
4.1550803 2.8427732 -0.14300668 0
0.95014501 -2.5170825 -0.1223532 2
4.3672051 0.10946513 -0.21254659 0
1.6360281 1.2486807 -0.16029572 4
4.1614203 -2.4128647 -0.17426574 0
1.6578693 0.047021993 -0.17215288 0
3.5978715 -7.7659922 -0.23310828 0
4.1585965 2.8798802 -0.14494836 0
0.96060139 -2.4941483 -0.11798191 1
4.3495431 0.13297424 -0.20171058 4
1.6305817 1.2592179 -0.15610111 3
3.6053262 -7.6545248 -0.22804093 0
4.1571183 2.91594 -0.14427912 0
0.97309172 -2.4825616 -0.12313092 1
4.3492999 0.15878949 -0.20025671 4
1.6265032 1.2730312 -0.1554606 2
4.1782193 -2.3562858 -0.17783701 0
3.6285102 -7.5780272 -0.23351145 1
4.1612663 2.9598038 -0.14671075 0
0.98500139 -2.4585714 -0.11963189 0
4.3488388 0.18645436 -0.19869351 0
1.62005 1.2850342 -0.15060079 1
4.2046623 -2.3367481 -0.18963253 0
4.139667 2.984236 -0.13484359 0
0.99837625 -2.441891 -0.12269306 1
4.3701572 0.21705537 -0.20877671 0
1.6149476 1.3002954 -0.1492753 0
4.1978602 -2.2929282 -0.18261337 5
1.6655277 0.0957027 -0.1833384 0
1.0124358 -2.4246697 -0.12613714 1
4.3472934 0.24676275 -0.19493866 5
1.600273 1.3031402 -0.12833285 0
1.6699415 0.11020878 -0.1915648 1
3.6711454 -7.2458305 -0.22934365 0
4.1307888 3.0710156 -0.13017571 0
1.0270154 -2.4069133 -0.12995517 0
4.3417497 0.27906486 -0.19035017 5
1.5996428 1.327548 -0.13787889 0
4.2311707 -2.2304931 -0.19487512 0
1.6720304 0.12521289 -0.19522226 3
4.1430893 3.1337907 -0.13721597 0
1.0398962 -2.3731256 -0.12166953 0
4.3665733 0.31540847 -0.20221019 0
1.6108679 1.371505 -0.17379582 0
4.2332397 -2.187331 -0.192765 0
