# .PCD v0.7 - Point Cloud Data file format
VERSION 0.7
FIELDS x y z intensity
SIZE 4 4 4 4
TYPE F F F F
COUNT 1 1 1 1
WIDTH 1408
HEIGHT 1
VIEWPOINT 0 0 0 1 0 0 0
POINTS 1408
DATA ascii
10.423148 12.775061 0.82788312 68
3.3224666 3.7740664 -0.16855103 10
3.7428689 4.300571 -0.16196197 8
4.3352342 5.0403509 -0.16013795 12
5.21839 6.1434116 -0.15535885 12
6.5547214 7.813344 -0.13018709 27
5.7514086 6.8313103 0.28045487 10
3.336591 3.7689781 -0.16916889 9
3.7594883 4.2935314 -0.16227454 9
4.3545752 5.031168 -0.16013485 12
5.2449021 6.1348495 -0.15566158 13
6.5904975 7.8037682 -0.13033748 23
5.8244152 6.8750381 0.27606255 9
8.3531628 10.015848 0.41297746 8
10.545403 12.753993 0.8324042 8
3.3476212 3.7600904 -0.16857439 12
3.7754552 4.2869396 -0.16262132 9
4.3731251 5.0225258 -0.16017288 11
5.2704515 6.1269474 -0.15601474 13
6.6218686 7.7912054 -0.13003093 23
5.8777819 6.8960276 0.27373564 2
8.3922329 9.9970865 0.4143911 9
10.622355 12.762452 0.83466285 71
3.3617203 3.7548962 -0.16919178 12
3.7882893 4.2765174 -0.16192859 8
4.3948011 5.0176001 -0.16107947 10
5.2959962 6.1189365 -0.15636665 11
6.6563926 7.7823429 -0.13024503 25
8.4407663 9.9897623 0.41527745 8
10.648821 12.708604 0.83695406 8
3.3727012 3.7459209 -0.16859835 13
3.8042214 4.2698045 -0.16227514 5
4.413332 5.0087948 -0.1611163 11
5.3183727 6.107008 -0.15602255 12
6.6877446 7.7695036 -0.12993556 23
8.5205841 9.9988804 -0.0089708567 25
8.4957075 9.9899187 0.4158183 8
3.3867779 3.7406163 -0.16921526 13
3.8201449 4.2630243 -0.16262132 6
4.4318438 4.9999161 -0.16115278 12
5.3439045 6.0987844 -0.15637207 12
6.7222714 7.7603445 -0.13014561 25
8.5692692 9.9910088 -0.0089400411 6
8.5475521 9.9859591 0.41654146 8
10.815965 12.739295 0.84151423 98
3.4008503 3.7352507 -0.16983145 12
3.8360555 4.2561784 -0.16296703 9
4.4503374 4.990962 -0.16118914 12
5.3694305 6.0904512 -0.15672052 12
6.7568069 7.7510338 -0.13035321 25
8.6212034 9.9867306 -0.0092520714 11
8.5994558 9.9817562 0.41727051 8
28.908737 34.292015 0.8494181 23
3.411763 3.7261395 -0.1692391 12
3.85132 4.2498007 -0.16334683 10
4.468051 4.9825716 -0.16126674 12
5.3940005 6.0828085 -0.15711933 13
6.786881 7.7388258 -0.1301074 26
8.6619072 9.9721508 -0.0086063147 5
8.6497974 9.9786749 0.4179171 8
10.978674 12.766195 0.84601974 60
3.4252656 3.7211258 -0.16988462 12
3.8665769 4.2433596 -0.16372627 10
4.4889526 4.9778528 -0.16220957 12
5.41535 6.0713005 -0.1568253 14
6.8201756 7.7302752 -0.13037872 24
8.7422533 10.024879 0.41632956 7
11.015637 12.728431 0.84820426 77
3.439307 3.715596 -0.17050022 14
3.8798912 4.2320819 -0.16300148 7
4.5081701 4.9680185 -0.16220289 10
5.4418082 6.0618448 -0.15711844 15
6.8527198 7.7156963 -0.12999481 24
8.7725124 9.9700069 -0.0098950863 4
8.8676395 10.101933 0.41340175 10
11.105376 12.743996 0.85066116 8
3.4501503 3.7063506 -0.16990906 12
3.895745 4.2249851 -0.16334647 7
4.5266056 4.9587526 -0.16223782 6
5.4673109 6.0530815 -0.15746218 8
6.8872509 7.7058001 -0.13019472 23
8.8778601 10.047132 0.41640094 10
11.176942 12.741932 0.85300028 85
3.4641654 3.7007117 -0.17052406 13
3.8986807 4.2031131 -0.15955752 4
4.5450182 4.9494162 -0.16227251 5
5.5025816 6.0553961 -0.15987337 4
6.9185224 7.6919975 -0.12987614 15
10.346723 11.649182 -0.1648795 4
8.8615952 9.962183 0.420748 11
11.206078 12.690374 0.85528958 14
3.4749568 3.6913798 -0.16993409 13
3.9371371 4.22159 -0.16713291 4
4.5731869 4.9510822 -0.16489428 4
5.534656 6.053812 -0.16159004 7
6.946485 7.6743326 -0.12904143 9
10.398338 11.630809 -0.16414744 4
8.9369068 9.9828196 0.42032808 5
11.307275 12.721667 0.85768622 38
3.4889462 3.685631 -0.17054898 12
3.9660046 4.2288771 -0.17160219 12
4.5981402 4.9489231 -0.16665012 12
5.5667777 6.0520716 -0.16330272 6
6.9776983 7.6602793 -0.12872195 5
10.443336 11.604732 -0.16272825 4
8.9926548 9.9805326 0.4209362 3
11.375813 12.71484 0.86004436 86
3.5029256 3.6798258 -0.17116338 12
3.9949622 4.2360086 -0.1760655 12
4.6231279 4.9466438 -0.16840285 9
5.5989399 6.0501785 -0.16501158 8
7.0088882 7.6460924 -0.12840164 5
10.501525 11.593388 -0.16267627 4
21.302467 23.803665 -0.19929737 2
11.451068 12.71516 0.86242443 5
3.5169003 3.6739581 -0.17177731 11
3.9977815 4.2139287 -0.17227894 9
4.6448488 4.9405823 -0.16929227 9
5.6179109 6.0333862 -0.16396922 7
7.0433717 7.6354818 -0.12859428 5
10.546449 11.566899 -0.16125482 4
11.523123 12.711375 0.86480749 48
3.5275967 3.664444 -0.17118901 11
4.0136509 4.2063541 -0.17261678 12
4.6632614 4.9307766 -0.169321 9
5.6401443 6.0202026 -0.16361457 9
7.0778604 7.6247129 -0.1287846 12
10.59798 11.547652 -0.16051489 4
11.582316 12.666527 0.30208963 38
11.571918 12.681173 0.8671428 44
3.5415418 3.6584673 -0.17180246 12
4.0295038 4.1987138 -0.1729545 10
4.6816568 4.9208937 -0.16934925 9
5.6623468 6.0069294 -0.16326028 7
7.1123452 7.6137924 -0.12897295 10
10.646142 11.524481 -0.15943295 4
11.708138 12.721386 0.30025959 28
11.66755 12.702724 0.86960167 9
3.5554795 3.6524312 -0.17241579 11
4.0420265 4.1874084 -0.17226344 12
4.7000284 4.9109354 -0.16937762 8
5.6878643 5.9972153 -0.16359061 6
7.1501937 7.6063824 -0.12967032 11
10.697626 11.504791 -0.1586892 4
11.757048 12.690564 0.30225849 67
11.75673 12.71636 0.87206 65
3.5661011 3.6427827 -0.17182893 12
4.054512 4.1760592 -0.17157358 9
4.718379 4.9008999 -0.16940588 8
5.7100091 5.9837532 -0.1632362 5
7.1846924 7.5951405 -0.1298539 12
10.745721 11.481198 -0.15760446 4
11.816008 12.670599 0.30376297 6
11.836009 12.718462 0.87450361 5
3.5800085 3.6366384 -0.1724419 11
4.066956 4.1646671 -0.17088479 15
4.7367077 4.890789 -0.16943413 6
5.7321224 5.9702015 -0.16288203 5
7.2191887 7.5837412 -0.1300354 15
10.797161 11.461062 -0.15685672 5
11.895323 12.672383 0.3042891 71
11.942552 12.749556 0.87704712 48
3.5905731 3.6269059 -0.17185646 12
4.078743 4.1538029 -0.17023152 8
4.7542644 4.8812981 -0.16950387 7
5.7566509 5.9610415 -0.16326243 5
7.2524729 7.5733128 -0.13028228 14
10.846687 11.442455 -0.15621173 4
11.959054 12.661082 0.30536181 22
11.982691 12.712403 0.87927407 38
3.6039233 3.6211433 -0.17249864 12
4.0904913 4.1429014 -0.16957933 9
4.775188 4.8753147 -0.17042881 7
5.7777767 5.9481726 -0.16295987 6
7.2857552 7.5627422 -0.13052744 13
10.892785 11.420005 -0.15522861 4
12.094584 12.726078 0.30303216 42
12.050014 12.704346 0.88159615 23
3.6177919 3.6148343 -0.17311126 13
4.1034355 4.1308069 -0.16885966 12
4.7942071 4.864275 -0.17041487 7
5.8041406 5.9370708 -0.16323537 6
7.3214598 7.5497513 -0.13063562 13
10.946041 11.397449 -0.15437025 4
12.149166 12.695451 0.30501193 56
12.118193 12.688367 0.88414681 45
3.6316469 3.6084669 -0.17372352 12
4.119113 4.1227722 -0.16919976 13
4.8124552 4.8538561 -0.17044252 7
5.8295636 5.9267235 -0.1635614 5
7.3559513 7.537734 -0.13080925 11
10.997383 11.376431 -0.15361488 5
12.225674 12.691931 0.30574882 8
12.187748 12.677668 0.88660026 43
3.6421154 3.5985518 -0.17313975 11
4.1347733 4.1146727 -0.16953975 11
4.8341026 4.8469048 -0.17132324 9
5.8549705 5.9162693 -0.16388685 10
7.386991 7.5219736 -0.13047451 11
11.048709 11.355185 -0.15285718 5
12.295374 12.680813 0.30681521 68
12.264273 12.673862 0.88908994 55
3.655942 3.5920744 -0.17375189 10
4.1470041 4.1029997 -0.16885656 12
4.8523149 4.8363228 -0.1713503 9
5.8803706 5.9056969 -0.16421098 6
7.4214573 7.5096598 -0.13064528 9
11.103469 11.3373 -0.15243113 5
12.347809 12.651355 0.30868691 11
12.340902 12.669675 0.89158934 56
3.6663523 3.5820765 -0.17316955 8
4.162622 4.0947781 -0.16919667 10
4.8705025 4.8256674 -0.17137724 6
5.9057565 5.8950157 -0.16453427 7
7.4559212 7.4971867 -0.13081402 10
11.154751 11.315591 -0.15166932 5
12.434975 12.657547 0.30897075 69
12.421127 12.668685 0.89411497 57
3.6801453 3.5754912 -0.17378181 13
4.1782207 4.0864916 -0.16953665 12
4.8886662 4.8149328 -0.17140418 7
5.927659 5.8806877 -0.16417879 10
7.4938593 7.4881105 -0.13148534 9
11.209503 11.297214 -0.15123701 5
12.511849 12.652547 0.30974311 39
12.497989 12.663704 0.89663482 59
3.6904972 3.5654087 -0.17320079 13
4.1938028 4.0781393 -0.16987675 12
4.9068036 4.8041258 -0.17143148 8
5.9530077 5.8697901 -0.16450089 8
7.5283175 7.4753151 -0.13165003 10
11.264247 11.278588 -0.15080184 5
12.609863 12.668532 0.30958122 31
12.578466 12.661899 0.89918214 57
3.7008154 3.5552886 -0.17262071 12
4.2093687 4.0697203 -0.1702165 11
4.9249177 4.7932415 -0.17145878 9
5.9783421 5.8587828 -0.16482204 8
7.5662813 7.465888 -0.13231575 8
11.315477 11.256167 -0.15003276 5
12.697574 12.673337 0.30990696 63
12.659067 12.659681 0.90174025 58
3.7145491 3.5485492 -0.17323333 12
4.2208395 4.0583849 -0.16957051 10
4.9422746 4.7830076 -0.17152721 10
5.999238 5.8450756 -0.1645183 9
7.5995421 7.4539537 -0.13254356 5
11.368353 11.238891 -0.14969617 5
12.776297 12.672692 0.31043977 11
12.737702 12.659135 0.90419132 59
3.7277596 3.5422602 -0.17387456 10
4.2357588 4.0504489 -0.1699447 11
4.95961 4.7727022 -0.17159563 9
6.0236235 5.8347692 -0.16488975 6
7.6327972 7.4418755 -0.13276976 5
11.421223 11.221385 -0.14935672 5
12.851609 12.668122 0.31113887 75
12.819991 12.661738 0.90667164 54
3.7414713 3.535404 -0.1744867 8
4.2518635 4.0412445 -0.17025071 11
4.9783731 4.7608719 -0.1715824 9
6.0498161 5.8225298 -0.16515762 7
7.6684346 7.427248 -0.13285911 5
11.477791 11.199922 -0.1488052 5
12.906346 12.634363 0.31316692 9
12.903095 12.656156 0.90938258 55
3.7551718 3.5284867 -0.17509848 11
4.2638359 4.0291653 -0.16957325 10
4.9963832 4.7496901 -0.17161018 7
6.0750828 5.8110867 -0.16547579 7
7.7028604 7.4136677 -0.13301486 5
11.532502 11.180054 -0.14835489 5
13.005268 12.647995 0.31307554 70
12.987766 12.655781 0.91200542 55
3.7653584 3.5181446 -0.17452115 12
4.2792912 4.0204415 -0.16991371 13
5.0143642 4.7384367 -0.17163807 7
6.0967717 5.7960892 -0.16512078 8
7.7372799 7.3999224 -0.13316864 6
11.587203 11.159937 -0.14790189 5
13.10801 12.664575 0.31284851 23
13.069019 12.651456 0.91461962 53
3.7790222 3.5111198 -0.17513305 11
4.2947259 4.0116539 -0.17025429 12
5.0323191 4.7271042 -0.17166609 9
6.121994 5.7844334 -0.16543812 7
7.7716842 7.3860235 -0.13332093 5
11.645484 11.14303 -0.14777195 5
13.22178 12.691025 0.31218231 57
13.153976 12.65019 0.91726667 43
3.7891507 3.5006919 -0.17455715 9
4.3101439 4.0027981 -0.17059475 12
5.0502439 4.715703 -0.1716947 10
6.1436186 5.7692423 -0.16508323 6
7.8060808 7.3719645 -0.13347155 5
11.703769 11.125854 -0.1476385 5
13.249432 12.633682 0.31518376 38
13.23547 12.645017 0.9199025 36
3.7992415 3.4902296 -0.17398244 8
4.3255424 3.9938765 -0.17093498 14
5.0681443 4.7042227 -0.17172331 8
6.1687927 5.7573757 -0.16539997 8
7.8404627 7.357748 -0.13362068 4
11.7693 11.115274 -0.14815015 5
13.388881 12.683288 0.31348914 30
13.320694 12.642869 0.92257279 26
3.8128428 3.4830508 -0.17459482 9
4.3409181 3.9848926 -0.17127544 11
5.0860157 4.692667 -0.17175204 12
6.1903458 5.7419977 -0.16504556 9
7.874825 7.3433819 -0.13376856 5
11.831267 11.100938 -0.14833057 5
13.430916 12.639218 0.31588984 61
13.398801 12.633391 0.92520612 18
3.8228719 3.4725058 -0.17402166 10
4.3562775 3.9758394 -0.1716159 11
5.1074591 4.6844025 -0.17262429 8
6.2154727 5.7299194 -0.16536158 7
7.9128084 7.3322535 -0.13441092 5
11.896897 11.089718 -0.14882958 5
13.487905 12.633809 0.92792332 11
3.8364334 3.4652221 -0.17463464 11
4.3710303 3.967344 -0.17198974 9
5.1245728 4.6734419 -0.17269367 7
6.2396884 5.7186775 -0.16572791 6
7.9459867 7.318799 -0.13462204 5
11.953465 11.073299 -0.14878017 5
12.158309 11.286251 0.37588254 18
13.582368 12.642818 0.93058473 7
3.8494844 3.4584098 -0.17527574 13
4.3821602 3.9554756 -0.17135137 9
5.141664 4.6624117 -0.17276305 7
6.2638922 5.7073298 -0.16609353 7
7.9791527 7.3052025 -0.13483202 5
12.010043 11.056626 -0.14872712 5
12.142364 11.200836 0.3799881 35
13.669706 12.644525 0.93320853 4
3.8630199 3.4510071 -0.17588836 13
4.3980331 3.9456141 -0.17165881 12
5.1601386 4.6497927 -0.17275172 7
6.2898564 5.6939611 -0.16635603 6
8.0146427 7.2889385 -0.13490611 5
12.066603 11.032385 -0.14813906 6
12.133314 11.11507 0.38413468 39
13.805457 12.681963 0.93640971 6
3.8765397 3.4435468 -0.1765005 12
4.4132977 3.9363163 -0.17199987 12
5.1778784 4.6378555 -0.17278105 7
6.3149076 5.6814365 -0.16666943 6
8.0489407 7.2737741 -0.13504618 5
12.121323 11.009838 -0.1476528 5
12.125653 11.034873 0.38800585 37
13.880604 12.666782 0.9390775 3
3.8864319 3.4327791 -0.17593032 12
4.4285445 3.9269495 -0.17234081 12
5.1955853 4.625845 -0.17281085 7
6.339941 5.6687965 -0.16698188 5
8.0832233 7.2584515 -0.13518494 5
12.176022 10.987036 -0.14716405 5
12.117577 10.954853 0.39185676 32
13.97797 12.671429 0.94192225 2
3.8999097 3.4252141 -0.17654318 12
4.4437704 3.9175172 -0.17268199 13
5.213264 4.6137586 -0.17284089 7
6.3649492 5.6560497 -0.16729409 8
8.1174908 7.2429676 -0.13532227 5
12.230697 10.963984 -0.1466732 5
12.11278 10.878375 0.3955408 35
3.9097381 3.4143653 -0.17597455 12
4.4589729 3.908021 -0.17302316 11
5.2345943 4.6048741 -0.17370981 8
6.3899398 5.6431847 -0.16760546 8
8.1517334 7.2273283 -0.13545853 5
12.28535 10.940674 -0.14617968 5
12.111321 10.805378 0.39906138 41
30.606359 27.4482 1.0786457 24
3.9231768 3.4066913 -0.17658764 13
4.4741545 3.8984571 -0.17336434 12
5.2485271 4.589365 -0.17290217 7
6.4111977 5.6269217 -0.16725212 9
8.1859617 7.2115288 -0.13559335 5
12.33625 10.913795 -0.14536566 6
12.109483 10.732523 0.40256381 42
30.699739 27.343891 1.0840638 38
3.9329398 3.3957622 -0.1760208 13
4.4887409 3.8894737 -0.1737389 13
5.2654181 4.577837 -0.17297357 7
6.4352579 5.61483 -0.16761392 9
8.219017 7.1968689 -0.13579392 5
12.38905 10.892011 -0.14497244 5
12.105526 10.661782 0.40594649 47
30.290504 26.803358 1.085083 18
3.9458492 3.3885322 -0.17666262 13
4.5033073 3.8804297 -0.17411357 11
5.2859974 4.5694809 -0.17388207 7
6.4592986 5.6026325 -0.16797513 9
8.2557983 7.185338 -0.13648254 5
12.438081 10.866698 -0.14426011 5
12.101223 10.591177 0.40931249 45
12.96626 11.37295 0.94352365 5
3.9555485 3.3775241 -0.17609757 13
4.5189953 3.8700264 -0.17442173 11
5.3042235 4.556231 -0.17387289 7
6.4850602 5.5883484 -0.16823441 9
8.294878 7.1710215 -0.13703525 4
12.494404 10.840373 -0.14365447 5
12.1038 10.520045 0.4127211 44
13.016855 11.338002 0.94591308 21
3.9652097 3.3664823 -0.17553371 11
4.5340881 3.8602042 -0.17476326 12
5.3217258 4.5436916 -0.17390448 8
6.5099258 5.5749388 -0.16854388 7
8.3328094 7.1578217 -0.1376521 12
12.548908 10.815823 -0.14315093 6
12.108069 10.454278 0.41587025 46
3.9748321 3.3554068 -0.17497104 8
4.5485907 3.8509717 -0.17513818 12
5.33851 4.5318713 -0.17397672 8
6.5301371 5.5591965 -0.16824287 8
8.3695984 7.1457586 -0.13833356 11
12.601608 10.793077 -0.14274943 5
12.110312 10.390577 0.41890439 44
3.9839377 3.3448536 -0.1744377 6
4.5630741 3.8416796 -0.17551321 13
5.3552651 4.5199823 -0.17404944 9
6.5540819 5.5465832 -0.16860265 7
8.4063911 7.1335249 -0.13901246 11
12.658083 10.773331 -0.1426599 6
12.112259 10.326971 0.4219245 42
3.9972088 3.3368342 -0.17505318 6
4.574913 3.827857 -0.17481846 14
5.3733535 4.5064282 -0.17404217 7
6.5797267 5.531848 -0.16886109 5
8.441658 7.1152382 -0.13906938 11
12.714288 10.74594 -0.14204538 5
12.124895 10.265969 0.42484891 43
12.831951 10.886216 0.95145941 2
4.0067272 3.3256469 -0.17449349 7
4.5899024 3.8177898 -0.17516118 10
5.3907256 4.493597 -0.17407554 8
6.6006842 5.5148239 -0.16851062 6
8.4757595 7.0981207 -0.13919204 11
12.772506 10.723575 -0.14184594 6
12.139387 10.210205 0.42752236 48
12.860047 10.837557 0.95349222 2
4.0199537 3.3175228 -0.1751098 9
4.6043081 3.8083212 -0.17553705 10
5.411181 4.4846454 -0.17498153 7
6.6245489 5.5018988 -0.16886979 8
8.5087051 7.0821905 -0.13938046 11
12.82512 10.699827 -0.14143461 5
12.155797 10.159652 0.42994812 50
12.840203 10.752393 0.95497823 2
4.0326905 3.3099043 -0.17575389 10
4.6149106 3.7956808 -0.17491132 9
5.4278231 4.4724646 -0.17505497 7
6.6483922 5.4888697 -0.16922849 7
8.5416298 7.0661135 -0.13956785 10
12.881551 10.679027 -0.14133316 5
12.183528 10.118679 0.43195125 54
12.823769 10.670671 0.95647919 2
4.0458827 3.3016641 -0.17637008 10
4.630374 3.7847676 -0.17522246 9
5.4457808 4.4585943 -0.17504925 7
6.6700802 5.4705429 -0.16882938 7
8.5767803 7.0471745 -0.13962108 11
12.941481 10.653727 -0.14102083 6
12.218268 10.076816 0.43400753 55
12.875916 10.639121 0.95880395 2
4.0552788 3.2903078 -0.1758135 13
4.6414509 3.7713699 -0.17456621 9
5.4630289 4.4454584 -0.17508405 7
6.6947098 5.4562807 -0.16913778 6
8.610775 7.0294294 -0.13974017 7
13.003502 10.633411 -0.14111948 5
12.255078 10.039996 0.43582481 61
12.899196 10.587241 0.96075809 2
4.0684237 3.2819631 -0.17643017 11
4.6562967 3.7610061 -0.1749112 9
5.4840794 4.4353456 -0.17594856 6
6.7193117 5.4419069 -0.16944593 7
8.6447411 7.0115252 -0.13985837 7
13.065529 10.612785 -0.14121377 5
12.295648 10.006187 0.43750301 62
12.930015 10.541638 0.96278125 2
4.0777512 3.2705283 -0.17587548 7
4.6672907 3.7475183 -0.17425734 8
5.5012679 4.4220505 -0.17598385 11
6.7438846 5.4274206 -0.16975373 8
8.6786776 6.9934626 -0.13997567 8
13.127562 10.59185 -0.14130384 5
12.34001 9.9753513 0.43904412 61
12.960664 10.495942 0.96479827 2
4.090848 3.2620792 -0.17649311 9
4.6820745 3.7370381 -0.17460352 9
5.5184202 4.4086819 -0.17601961 9
6.7684293 5.4128218 -0.17006141 9
8.7164717 6.9783468 -0.14057308 8
13.189596 10.570602 -0.14138961 5
12.399895 9.9568272 0.44004643 57
4.1001058 3.2505665 -0.17594033 12
4.6929851 3.7234607 -0.17395204 9
5.5355377 4.3952398 -0.17605585 8
6.792943 5.3981104 -0.17036885 9
8.7503576 6.9599543 -0.14068812 9
13.251633 10.549046 -0.14147127 5
12.459788 9.9379988 0.44105327 48
4.1131544 3.2420132 -0.17655855 14
4.7077055 3.7128642 -0.17429942 10
5.5526185 4.3817253 -0.1760928 7
6.8135309 5.3802242 -0.1700229 7
8.7881203 6.9444809 -0.14128226 11
13.317588 10.530267 -0.1418559 5
12.527537 9.925065 0.44179806 49
4.1261835 3.2334015 -0.17717689 15
4.7224002 3.7022033 -0.17464703 10
5.5696616 4.3681378 -0.17613035 6
6.8379745 5.3653021 -0.1703307 7
8.8219509 6.9257565 -0.14139545 10
13.379634 10.508072 -0.14192861 5
12.595335 9.9117708 0.44254988 47
4.1353412 3.2217658 -0.17662686 11
4.7331886 3.6884849 -0.17399889 10
5.586668 4.3544779 -0.17616862 6
6.8623867 5.3502674 -0.17063814 8
8.8596802 6.9099245 -0.14198607 10
13.437738 10.482502 -0.14169145 5
12.663184 9.898119 0.44330865 50
12.997056 10.176841 0.97355109 18
4.1444578 3.2100976 -0.17607826 11
4.7478189 3.6777089 -0.17434794 8
5.6036386 4.340745 -0.17620736 8
6.8867693 5.3351212 -0.17094558 8
8.8934555 6.8908691 -0.14209723 10
13.468164 10.435295 -0.13931519 4
12.731081 9.8841057 0.44407418 56
13.030318 10.134055 0.97555578 31
4.1535339 3.1983981 -0.17553085 9
4.7579875 3.6645932 -0.17373461 8
5.6238427 4.3307695 -0.17711037 9
6.9102955 5.3209286 -0.17130262 8
8.9261007 6.8730736 -0.14227378 11
12.785521 9.8626928 0.44514105 56
13.077625 10.1055 0.97763169 32
4.1582355 3.1843278 -0.17384559 7
4.7720232 3.6543984 -0.17411691 10
5.6401024 4.3177261 -0.17718905 9
6.9298453 5.3036356 -0.17100948 9
8.9626808 6.8581419 -0.14292628 10
13.001011 9.9458895 -0.094661593 4
12.84392 9.8440533 0.44608086 54
13.136794 10.08585 0.97984195 28
4.1711144 3.175493 -0.17446738 6
4.7870946 3.6427517 -0.17443508 9
5.6615624 4.3058825 -0.17801315 7
6.9549413 5.2871017 -0.17126745 8
8.9974527 6.8371782 -0.14296901 11
13.019216 9.889081 -0.091379821 6
4.1839728 3.1666002 -0.1750893 8
4.8016057 3.6317341 -0.17478603 10
5.6823564 4.2947836 -0.17887586 8
6.9791851 5.2715244 -0.17157525 8
9.0310984 6.8174801 -0.14307714 11
13.075474 9.8643551 -0.091233671 9
13.276049 10.051167 0.98475814 6
4.1968098 3.1576488 -0.17571121 11
4.8160892 3.6206534 -0.17513734 10
5.6991692 4.2806511 -0.17891604 12
7.0033946 5.2558355 -0.17188281 7
9.0647039 6.7976227 -0.14318496 11
13.163728 9.8632002 -0.093500972 10
4.2135496 3.1515126 -0.17749745 9
4.830544 3.6095083 -0.17548889 10
5.7079949 4.2606015 -0.1773147 16
7.0275698 5.2400351 -0.17219049 8
9.1022768 6.7805634 -0.14376616 11
13.252124 9.8615456 -0.095755696 10
4.2263541 3.142432 -0.17811924 7
4.8449702 3.5982993 -0.17584091 11
5.7207246 4.243444 -0.1765371 9
7.0517111 5.224122 -0.17249805 8
9.1358166 6.760375 -0.14387244 11
13.358969 9.8906012 0.4447014 8
4.2351937 3.1304474 -0.17757839 9
4.8593659 3.5870259 -0.1761933 12
5.7294006 4.2233472 -0.17494136 6
7.0758157 5.2080984 -0.17280585 7
9.1733427 6.7429571 -0.1444509 11
13.403365 9.8554783 0.44630086 31
4.2479448 3.121264 -0.1782009 11
4.8732157 3.5764008 -0.17657787 9
5.7373681 4.2040958 -0.17338771 5
7.0990853 5.1930618 -0.17316264 8
9.2097788 6.726819 -0.1450935 11
14.017855 10.218653 -0.13968706 4
13.454157 9.8282394 0.44754905 37
4.2602358 3.112627 -0.17885083 9
4.8870382 3.5657163 -0.17696291 10
5.7492757 4.1876998 -0.17265564 6
7.1223235 5.1779203 -0.17351955 7
9.2462015 6.7105083 -0.14573431 10
14.057745 10.180612 -0.1383298 3
13.537354 9.824132 0.44779813 29
4.2689714 3.1005247 -0.17831284 9
4.8978634 3.5507092 -0.17629617 9
5.766396 4.1723843 -0.17266697 8
7.1471219 5.1604624 -0.17377824 6
9.2806759 6.6881742 -0.14577162 11
14.121173 10.152265 -0.13826126 3
13.632007 9.8209047 0.44800755 33
4.2816472 3.0911837 -0.17893666 10
4.9121346 3.5391986 -0.17665094 8
5.7828512 4.1578617 -0.17271751 8
7.1670318 5.1411381 -0.17344242 8
9.3181095 6.6700306 -0.1463446 11
14.174762 10.12015 -0.13769698 3
13.725203 9.8193693 0.4481315 37
4.290308 3.0790067 -0.17840093 10
4.9263735 3.5276234 -0.17700595 7
5.7992663 4.1432681 -0.17276889 15
7.1909475 5.1245737 -0.17375129 7
9.3514433 6.64884 -0.14644635 10
14.24054 10.096384 -0.13802302 4
13.814456 9.814415 0.44839197 36
4.302928 3.0695639 -0.17902595 11
4.936552 3.5131953 -0.17637473 7
5.815639 4.128603 -0.1728211 15
7.2107525 5.1050682 -0.17341775 7
9.3888187 6.6303358 -0.14701694 10
14.298124 10.066564 -0.13775188 3
13.907928 9.8118134 0.44854194 36
4.3155246 3.0600634 -0.17965096 10
4.9507203 3.5015075 -0.17673165 7
5.8319707 4.1138668 -0.17287415 10
7.234581 5.088295 -0.17372745 6
9.4220734 6.6088142 -0.14711785 11
14.359772 10.039301 -0.13777459 3
13.997435 9.8058252 0.44882712 36
4.3280973 3.0505052 -0.18027645 12
4.9608073 3.4869943 -0.17610329 10
5.8441877 4.0962763 -0.17211288 10
7.2583714 5.0714111 -0.1740374 5
9.4552822 6.5871344 -0.14721847 11
14.417276 10.008895 -0.13749903 3
14.091171 9.8021545 0.44900286 35
4.3406467 3.0408897 -0.18090206 12
4.9708438 3.4724467 -0.17547661 7
5.8604264 4.0814133 -0.17216831 10
7.2780194 5.0516291 -0.17370671 6
9.4884453 6.5652952 -0.14731914 11
14.478859 9.9810152 -0.13751644 4
14.185045 9.797946 0.4491916 34
4.3491316 3.0285077 -0.18037122 11
4.984899 3.4605978 -0.17583627 7
5.8766227 4.0664787 -0.17222458 10
7.3017201 5.0345364 -0.17401773 6
9.517437 6.5405121 -0.14695328 10
14.53628 9.9500227 -0.13723683 4
14.279051 9.7931929 0.44939324 32
4.3616233 3.018791 -0.18099815 11
4.9989219 3.4486849 -0.17619628 9
5.8968778 4.0542145 -0.17309505 10
7.3253808 5.017333 -0.1743291 4
9.5422258 6.5128241 -0.14612252 10
14.593651 9.9187441 -0.13695562 3
14.377335 9.7906866 0.44948828 30
4.3740897 3.0090165 -0.18162507 12
5.0129128 3.4367104 -0.17655677 8
5.9129987 4.0391254 -0.17315251 11
7.3531294 5.0027628 -0.17527956 5
9.5669289 6.4850359 -0.14529437 11
14.65097 9.8871794 -0.13667274 4
14.475762 9.7876081 0.44959727 30
14.894512 10.085328 1.0309982 13
4.3824635 2.9965181 -0.18109745 10
5.0263791 3.4254103 -0.17694908 7
5.9325991 4.0275736 -0.17406088 11
7.3759532 4.9864721 -0.17563897 6
9.5822163 6.4531918 -0.14360356 11
14.706622 9.8577538 -0.13649035 4
14.568566 9.783596 0.44973731 32
14.913306 10.030087 1.0328032 7
4.390378 2.9846177 -0.1805976 11
5.0398169 3.4140527 -0.17734188 10
5.9521799 4.0159302 -0.17496854 8
7.4028888 4.9727945 -0.1766364 6
9.5973902 6.4213104 -0.14191747 12
14.753891 9.8225765 -0.13572317 3
14.674018 9.7873201 0.44953644 29
4.4027538 2.9747024 -0.18122691 10
5.0542021 3.4011514 -0.17767316 10
5.9812045 4.0077581 -0.17742282 6
7.427166 4.9539709 -0.17689937 5
9.618638 6.3890324 -0.14057124 12
14.821003 9.79321 -0.13591701 3
14.761925 9.7718859 0.45013931 23
4.4110074 2.9621043 -0.18070322 11
5.0680633 3.3889282 -0.17803603 11
6.0054989 3.9976599 -0.17910177 4
7.4506392 4.9361887 -0.17721111 5
9.6429443 6.360919 -0.13975567 12
14.878111 9.7605104 -0.13562834 3
4.4233227 2.9520891 -0.1813336 11
5.0818925 3.3766427 -0.1783995 10
6.0297847 3.9874334 -0.1807794 9
7.4740691 4.9182968 -0.17752331 6
9.6713552 6.3353958 -0.13940501 12
14.905761 9.7086372 -0.13331026 3
12.551475 8.2105083 0.5168376 3
4.4314976 2.939419 -0.1808123 11
5.0956874 3.3642943 -0.17876369 9
6.0540624 3.9770801 -0.18245548 8
7.4974542 4.9002934 -0.17783564 8
9.6996956 6.3097448 -0.13905579 12
4.4437513 2.9293044 -0.18144423 11
5.1048164 3.350029 -0.17817992 8
6.0735683 3.9648921 -0.18335944 8
7.5158539 4.8807077 -0.17756182 5
9.7269745 6.2855234 -0.13877136 11
13.254853 8.5287123 -0.012209535 3
12.514224 8.0739698 0.52253175 3
12.729576 8.2247686 1.0112104 2
4.455574 2.91977 -0.18210226 11
5.1138978 3.3357332 -0.17759794 7
6.0888662 3.9499979 -0.18345493 7
7.5384011 4.8636789 -0.1779235 6
9.7584057 6.2638283 -0.13894856 10
12.505038 8.0137005 0.52502668 3
12.665901 8.129015 1.0115501 1
4.4677773 2.9095438 -0.18273479 12
5.1238804 3.3198977 -0.17695659 5
6.1052866 3.9331889 -0.18347675 10
7.5581756 4.8415718 -0.17755669 5
9.7875328 6.2362194 -0.13853931 12
13.246272 8.401967 -0.0043677688 6
12.519345 7.962719 0.52710569 7
12.642462 8.0534945 1.0125796 2
4.4758034 2.8967192 -0.1822179 11
5.1333332 3.3047824 -0.17634755 5
6.1210761 3.9172325 -0.18353707 12
7.5813661 4.8231602 -0.17787224 4
9.8198366 6.2126637 -0.13865435 12
13.239424 8.3374691 -0.0003247261 6
12.54491 7.9216805 0.52875471 13
12.613094 7.9776783 1.0134436 2
4.4879441 2.8863938 -0.18285173 11
5.1427331 3.2896335 -0.17574054 5
6.1326065 3.8986368 -0.18279225 10
7.6002774 4.8020525 -0.17755586 4
9.8520832 6.1889496 -0.13876957 12
13.279078 8.3018274 0.00055533648 5
12.54478 7.8648472 0.53107226 12
12.604632 7.915267 1.0145994 2
4.4958897 2.8734994 -0.18233746 11
5.1562781 3.276988 -0.17611152 5
6.148293 3.882556 -0.18285519 14
7.6233654 4.7834368 -0.17787319 5
9.8842754 6.1650782 -0.13888514 12
13.365542 8.2945557 -0.0017081499 7
12.544397 7.8081036 0.53337765 7
12.608677 7.8608236 1.0159298 1
4.5037899 2.8605773 -0.18182462 10
5.1697869 3.2642806 -0.17648321 5
6.1597023 3.8638659 -0.1821143 11
7.6464076 4.7647114 -0.17819101 9
9.9164133 6.1410522 -0.13900107 13
13.537565 8.3383894 -0.0096611381 6
12.526656 7.7410994 0.53611535 5
12.578285 7.7857075 1.0167403 2
4.5158305 2.8501115 -0.18246096 10
5.1874762 3.2540181 -0.17783076 7
6.1710458 3.8451359 -0.18137568 10
7.6651425 4.7433338 -0.1778788 7
9.9484911 6.116869 -0.13911736 17
13.637253 8.3374987 -0.012744248 5
12.568935 7.7237759 1.0178515 2
4.5236492 2.8371196 -0.18195075 11
5.200923 3.241173 -0.1782034 9
6.1865726 3.8288772 -0.18144327 12
7.6880794 4.7244024 -0.1781984 5
9.9762297 6.0899887 -0.13877773 15
13.681307 8.302845 -0.01212275 9
12.524559 7.6281891 0.5406611 2
12.589352 7.6799297 1.0194019 2
4.5314226 2.824101 -0.1814422 10
5.2185659 3.2307439 -0.17955059 9
6.2020507 3.8125503 -0.18151218 12
7.7152438 4.7078753 -0.17914802 5
10.008185 6.0655079 -0.13889551 11
13.742476 8.278121 -0.012635231 6
4.5433607 2.8134949 -0.18208104 11
5.231493 3.2185357 -0.17995411 10
6.2169242 3.7971001 -0.18161863 10
7.7373796 4.6899233 -0.17951518 5
10.039129 6.0424833 -0.13907611 11
15.555726 9.2817135 -0.12830114 5
4.5506687 2.8010626 -0.18160039 10
5.2443871 3.2062709 -0.18035823 11
6.2317538 3.7815864 -0.18172628 12
7.7594714 4.6718674 -0.17988294 5
10.074332 6.0218115 -0.1397118 11
4.5583158 2.7879498 -0.18109602 11
5.2538943 3.1899586 -0.17973107 11
6.2476444 3.7641082 -0.18176204 11
7.7829337 4.6512747 -0.18015772 4
10.107065 5.9952364 -0.13976818 10
15.680785 9.2159128 -0.12855595 12
4.5701537 2.7772079 -0.18173748 10
5.2671604 3.1768105 -0.18010741 10
6.2629309 3.7475104 -0.18183559 10
7.8013234 4.6293335 -0.17985278 5
10.143116 5.9725904 -0.14034092 12
15.762745 9.1936617 -0.1299445 13
4.5777178 2.7640271 -0.18123573 11
5.2761135 3.1611967 -0.17951351 10
6.2781682 3.7308443 -0.18191022 9
7.8239651 4.6097517 -0.18017656 4
10.179124 5.9497585 -0.14091319 11
15.823014 9.158637 -0.12992382 11
12.450265 7.2592363 0.55542254 1
4.589489 2.7531881 -0.18187886 10
5.2892952 3.1479411 -0.179892 11
6.2933555 3.7141099 -0.18198627 10
7.8465562 4.5900621 -0.18050104 5
10.215083 5.9267397 -0.14148504 6
15.891923 9.1281881 -0.13046104 10
4.6012306 2.7422936 -0.18252248 11
5.3024392 3.1346252 -0.18027133 10
6.3084931 3.6973083 -0.1820634 10
7.8690944 4.5702629 -0.18082637 4
10.246647 5.9011154 -0.14160448 6
15.969525 9.1022272 -0.13155335 8
12.465796 7.1604939 0.55923432 2
4.6086726 2.7290049 -0.18202466 11
5.311245 3.1188889 -0.17968208 11
6.3235793 3.6804388 -0.18214196 11
7.8915811 4.5503564 -0.1811524 4
10.282505 5.8777418 -0.14217585 4
16.038387 9.0709953 -0.13208228 6
12.471073 7.109951 0.56117898 2
12.598519 7.1927471 1.0303359 1
4.6203461 2.718014 -0.18266994 10
5.3243051 3.1054671 -0.18006378 11
6.3429494 3.6658657 -0.18302006 12
7.9140148 4.5303411 -0.18147928 4
10.318316 5.8541822 -0.14274704 6
16.089714 9.0297832 -0.131495 4
12.480521 7.0618572 0.56300986 2
4.6277037 2.704659 -0.18217486 10
5.3330092 3.0896544 -0.17947799 11
6.3579431 3.6488461 -0.18310076 13
7.9320331 4.5078526 -0.1811834 5
10.354077 5.8304386 -0.1433177 5
13.246622 7.4137106 0.052299321 2
12.489776 7.0137787 0.56483215 2
12.635311 7.1051035 1.0332617 2
4.639308 2.6935725 -0.18282169 11
5.3459826 3.0761271 -0.17986196 11
6.3772349 3.6340933 -0.18397969 12
7.9543509 4.4876356 -0.18151265 4
10.38979 5.806509 -0.14388824 7
13.261502 7.3654699 0.054453015 4
12.494439 6.9633341 0.56674904 2
12.644673 7.056447 1.0345716 2
4.6465797 2.6801515 -0.18232948 10
5.3589168 3.0625393 -0.18024665 11
6.3921337 3.6169243 -0.18406242 12
7.9766154 4.4673114 -0.18184274 4
10.425449 5.7823935 -0.14445835 8
16.291487 8.9305239 -0.13278097 5
12.520924 6.9247446 0.56814373 2
12.667054 7.0149012 1.0360899 2
4.6581144 2.6689696 -0.18297821 10
5.3670444 3.0474036 -0.17969471 11
6.4064584 3.6006677 -0.18418199 12
7.9981532 4.4481344 -0.18221945 6
10.46016 5.7597799 -0.14508957 8
16.376318 8.9095612 -0.13449812 5
12.546186 6.8881016 0.56945992 2
4.6649427 2.656158 -0.18251318 11
5.3794699 3.034513 -0.18011087 11
6.4207358 3.5843489 -0.18430275 10
8.0196438 4.4288578 -0.18259698 5
10.494824 5.7369919 -0.14572024 12
16.465597 8.8904533 -0.13648278 4
12.566916 6.8490286 0.57087392 4
4.6764097 2.6448836 -0.18316358 12
5.3927035 3.0199635 -0.18047005 11
6.4360023 3.5660019 -0.18435377 11
8.0424137 4.4069548 -0.1828844 5
10.531229 5.7106371 -0.14622861 12
16.526823 8.8491821 -0.13633782 4
12.589674 6.8057623 0.57243127 5
4.6835117 2.6313336 -0.18267697 10
5.4054742 3.0061545 -0.18085903 11
6.450695 3.548569 -0.18444198 12
8.0644588 4.3862028 -0.18321818 6
10.566683 5.6857882 -0.14679801 12
12.606765 6.7621775 0.57400942 3
4.6949072 2.6199644 -0.18332928 10
5.4177861 2.9930918 -0.18127769 13
6.4648247 3.5320587 -0.18456668 10
8.0857906 4.3666153 -0.18359834 8
10.601199 5.6624651 -0.1474281 12
13.424598 7.1210194 0.062130511 30
12.649303 6.734334 0.57490915 2
4.7015729 2.6070313 -0.18286973 11
5.4256835 2.9777617 -0.18073303 12
6.4833107 3.5177169 -0.1854859 9
8.1070738 4.3469276 -0.18397933 6
10.631228 5.636713 -0.14761215 11
13.414972 7.0632515 0.06552887 17
12.660616 6.6903763 0.57650411 2
4.7128983 2.5955698 -0.1835236 11
5.4387403 2.9629838 -0.18109697 11
6.4983625 3.4990807 -0.18554252 10
8.1296053 4.324584 -0.18427128 6
10.667389 5.6096144 -0.14812118 11
13.420706 7.0079622 0.068251789 16
12.727407 6.6693182 0.57705402 2
4.7198281 2.581893 -0.18304271 10
5.4469471 2.9467731 -0.18052727 10
6.5128531 3.4813712 -0.18563575 9
8.1558666 4.3056211 -0.18522757 5
10.69816 5.5818253 -0.14824617 12
12.793153 6.649951 0.57753634 1
4.731081 2.570338 -0.18369871 11
5.4594994 2.9327002 -0.18092221 11
6.5272894 3.4635956 -0.18573016 7
8.1776352 4.2843227 -0.18556613 5
10.733318 5.5560894 -0.14881641 11
13.138528 6.7577686 0.091164231 2
12.827567 6.6146297 0.57870722 2
4.7379236 2.5565982 -0.1832208 11
5.4676003 2.9164174 -0.1803562 11
6.5416703 3.4457545 -0.18582624 7
8.1993456 4.2629185 -0.18590587 5
10.768418 5.5301695 -0.14938694 11
13.168871 6.7190495 0.092118025 7
12.911215 6.6034346 0.57880843 2
4.7491026 2.54495 -0.1838786 10
5.480062 2.9022422 -0.18075365 11
6.5559969 3.4278474 -0.18592387 10
8.2209969 4.2414074 -0.18624681 4
10.79898 5.5018873 -0.14951438 10
13.158696 6.6605129 0.095502973 7
12.99493 6.5917282 0.57891929 2
4.755856 2.531147 -0.18340367 10
5.4924812 2.8880079 -0.18115205 11
6.5702696 3.4098763 -0.18602294 12
8.242588 4.2197895 -0.18658894 5
10.829465 5.4734516 -0.14964312 10
13.166247 6.6108027 0.09779501 8
13.069711 6.5751572 0.5792318 2
4.7669621 2.519407 -0.18406361 10
5.5048585 2.8737159 -0.18155175 10
6.5844855 3.3918393 -0.18612355 11
8.2685947 4.2002015 -0.18754786 5
10.864368 5.447011 -0.15021515 10
13.209633 6.5783596 0.097922862 6
13.153539 6.5624599 0.57936072 3
4.7780337 2.5076127 -0.18472403 10
5.5171933 2.8593647 -0.1819523 11
6.5941811 3.3716311 -0.18543655 14
8.2900734 4.1783571 -0.1878919 7
10.894706 5.4182529 -0.15034604 10
13.361207 6.5970392 0.09159714 7
13.368367 6.611474 0.57674658 7
4.7846565 2.4937093 -0.18425339 11
5.5250382 2.8428817 -0.18139464 11
6.6082788 3.3534806 -0.18554074 8
8.3069935 4.1543007 -0.18762237 9
10.929475 5.3914614 -0.15091914 10
13.467875 6.5934954 0.087980151 33
13.452533 6.5972958 0.57690966 8
13.684003 6.717555 1.0705364 2
4.7956538 2.481823 -0.18491608 11
5.5372791 2.8284297 -0.18179804 11
6.6223207 3.3352654 -0.18564659 6
8.3013334 4.1197267 -0.18428463 21
10.959664 5.3623838 -0.15105206 9
13.53394 6.5703058 0.086788177 9
13.541279 6.5847168 0.57698798 6
13.822941 6.7274351 1.0741545 2
4.8021865 2.4678583 -0.18444854 11
5.5490923 2.8147492 -0.18223006 11
6.6358323 3.3180039 -0.18578798 7
8.3039322 4.0906901 -0.18222564 14
10.993472 5.337018 -0.15168577 9
13.662418 6.5782709 0.081783712 4
13.747016 6.6284122 0.57457465 7
13.924752 6.7219057 1.0770662 2
4.8083472 2.4545708 -0.18400604 11
5.5563979 2.798985 -0.1817053 11
6.6492934 3.3006833 -0.18593067 8
8.3064194 4.0616746 -0.18017131 10
11.022692 5.3094091 -0.1518802 10
13.77293 6.5771389 0.077865481 6
13.866843 6.6312122 0.57396114 10
14.053926 6.7282915 1.080482 2
4.8192282 2.4425571 -0.18467194 12
5.5688877 2.7835474 -0.18208474 11
6.6591377 3.279227 -0.18522066 8
8.328084 4.0382309 -0.18048614 9
11.05801 5.2801352 -0.15239662 9
13.853827 6.5563393 0.075976372 2
13.861486 6.5707817 0.57610065 9
14.167212 6.7209167 1.0837408 2
4.825624 2.4285104 -0.18420917 11
5.5809503 2.7688825 -0.18249291 10
6.6729479 3.2607729 -0.18533331 9
8.35814 4.0200462 -0.1820696 9
11.092442 5.2524633 -0.15297276 10
13.90954 6.5373735 0.57705092 1
4.8364282 2.4164062 -0.18487734 10
5.588479 2.752177 -0.18194598 12
6.6867013 3.2422559 -0.18544763 8
8.383625 3.9996831 -0.18304104 9
11.122251 5.2225857 -0.15311146 9
17.599058 8.1134481 -0.13641673 3
4.8427324 2.4022996 -0.18441778 11
5.6004467 2.7374132 -0.18235713 11
6.7003975 3.223675 -0.18556339 8
8.4090595 3.9791839 -0.18401259 6
11.156537 5.1945629 -0.15368909 9
17.638855 8.0608358 -0.13530552 3
4.8534589 2.3901048 -0.18508786 11
5.6119981 2.7234313 -0.1827963 11
6.7135811 3.206063 -0.18571442 9
8.4338579 3.9598815 -0.18502766 5
11.185391 5.1661787 -0.15388894 8
17.681772 8.0129824 -0.1345579 4
4.8593621 2.3766479 -0.18465418 12
5.6190014 2.7074599 -0.18228179 11
6.7267118 3.1883917 -0.18586665 10
8.4540558 3.9384866 -0.18543297 5
11.214172 5.1376543 -0.15409017 6
17.738306 7.9708796 -0.13460457 4
4.8700118 2.3643653 -0.18532652 11
5.631197 2.6917007 -0.18266982 10
6.7406878 3.1685901 -0.18595427 10
8.4753513 3.9143167 -0.18575388 5
11.244449 5.1053457 -0.15417653 6
17.801886 7.9245195 -0.13472551 4
4.8761344 2.350142 -0.18487328 10
5.6384563 2.6748211 -0.18213218 11
6.7541537 3.1497593 -0.18607682 9
8.4959974 3.8913782 -0.18611914 5
11.273848 5.0747023 -0.1543228 9
17.859489 7.8788185 -0.13467818 4
4.8822079 2.3358979 -0.18442184 10
5.650187 2.659806 -0.18255013 11
6.7721157 3.1327703 -0.18698364 9
8.5165787 3.868336 -0.18648595 5
11.298568 5.0419827 -0.1540361 6
17.916979 7.8328047 -0.13463157 4
14.864751 6.560504 0.5717243 1
4.8882308 2.3216319 -0.1839723 11
5.6618719 2.6447344 -0.18296927 11
6.78547 3.1137996 -0.18710917 9
8.5370922 3.8451917 -0.1868543 6
11.327785 5.0110569 -0.15418649 4
17.965139 7.7826414 -0.13406241 4
14.996143 6.5574789 0.57116473 1
4.8942051 2.3073456 -0.18352467 10
5.6735106 2.6296065 -0.18338972 12
6.7987638 3.0947654 -0.18723625 9
8.557538 3.8219433 -0.18722409 5
11.352309 4.9780836 -0.15390486 4
18.013155 7.7322283 -0.13349599 4
15.169272 6.5707846 0.56983793 1
4.9046459 2.2948642 -0.18420345 10
5.685102 2.6144223 -0.18381125 10
6.8119984 3.0756695 -0.18736535 12
8.5733194 3.7967224 -0.18698853 6
11.381344 4.9468737 -0.15405941 5
15.296391 6.5640326 0.56940466 2
4.9105263 2.2805204 -0.18375903 10
5.6966481 2.5991826 -0.1842342 11
6.8251719 3.0565116 -0.18749613 10
8.5936213 3.7732837 -0.1873619 5
11.405671 4.9136524 -0.15378302 4
16.127357 6.8298779 -0.021001399 2
15.442174 6.5639715 0.56864297 2
4.9163561 2.2661562 -0.18331665 10
5.708147 2.5838866 -0.18465835 11
6.842875 3.0391185 -0.18840879 10
8.6138554 3.749743 -0.18773717 5
11.434521 4.8821611 -0.15394181 4
15.569568 6.5555248 0.5682441 2
4.926672 2.2535505 -0.183999 9
5.7150307 2.5667391 -0.18413347 11
6.8559337 3.0198219 -0.18854266 11
8.6340218 3.7261002 -0.18811399 5
11.458647 4.8486891 -0.15367073 4
16.142551 6.711709 -0.016164541 8
15.724962 6.5573254 0.56734991 2
4.9324079 2.2391303 -0.18355983 10
5.7264285 2.5513477 -0.18456084 11
6.8689318 3.0004637 -0.18867832 11
8.6541157 3.7023551 -0.18849248 5
11.482669 4.8151016 -0.15340263 4
16.131218 6.6453676 -0.012726128 7
15.861937 6.5508041 0.56681633 2
4.9426417 2.2264378 -0.18424469 9
5.7374415 2.5367627 -0.18501526 10
6.8814545 2.982106 -0.18884784 10
8.668973 3.678091 -0.18830937 5
11.505858 4.7832661 -0.15319377 4
16.151146 6.5945024 -0.011190176 7
16.025967 6.5569296 0.56571466 2
4.9525566 2.2144194 -0.1849522 10
5.7484131 2.5221267 -0.18547112 12
6.8939209 2.9636912 -0.18901914 11
8.6883936 3.6555388 -0.1887328 5
11.533602 4.7531071 -0.15341794 4
16.273445 6.5829916 -0.015332401 5
16.255514 6.5871906 0.56346226 7
4.9581561 2.1999092 -0.18451768 10
5.7554126 2.5039747 -0.18492776 11
6.9071503 2.9430895 -0.18912834 11
8.708807 3.6301317 -0.18907553 5
11.562701 4.7190561 -0.15353203 4
16.366053 6.5642366 0.56357384 4
4.9682703 2.1870804 -0.185206 10
5.7666159 2.4883804 -0.18536085 11
6.9199047 2.9234903 -0.18927139 10
8.7286148 3.605999 -0.18946129 5
11.595648 4.6884813 -0.15413386 4
16.558817 6.5635767 -0.025386095 4
16.592546 6.5873823 0.56154525 5
4.9783473 2.174202 -0.18589514 10
5.7731662 2.4710298 -0.18484765 10
6.9325972 2.9038308 -0.18941623 10
8.7483521 3.5817657 -0.18984848 5
11.628511 4.6577282 -0.15473664 4
18.596418 7.2594566 -0.13424224 2
16.781914 6.5950394 0.56021059 9
4.9838061 2.1596022 -0.18546551 11
5.7842665 2.4553418 -0.18528384 11
6.940589 2.8824124 -0.18878669 11
8.7680159 3.5574315 -0.19023782 5
11.656615 4.6250753 -0.15491223 5
16.765163 6.5252953 0.56250441 2
19.597742 7.5836439 1.2140833 3
4.9937978 2.146637 -0.18615729 10
5.7907014 2.4379303 -0.1847747 10
6.9531498 2.862649 -0.18893605 11
8.7876081 3.5329971 -0.19062883 4
11.684623 4.5922766 -0.15509003 4
18.708101 7.1590605 -0.13418055 3
19.589046 7.5058002 1.2153473 3
4.9991608 2.1319838 -0.18573111 11
5.8016968 2.4221494 -0.1852141 12
6.9656477 2.8428259 -0.18908721 11
8.8071251 3.5084617 -0.19102186 5
11.712535 4.5593319 -0.1552701 4
18.768436 7.1100912 -0.13440722 3
18.983097 7.1997747 0.52829576 26
19.589439 7.4315042 1.2167835 3
5.0044727 2.117312 -0.18530685 10
5.812644 2.4063144 -0.18565506 11
6.982738 2.8245935 -0.19001514 9
8.8265686 3.4838259 -0.19141656 5
11.745043 4.5279112 -0.15587962 4
18.823942 7.059104 -0.13438022 3
18.991837 7.1311541 0.53036845 26
19.584835 7.3556032 1.2181119 3
5.0143337 2.1042278 -0.18600255 10
5.8189077 2.388804 -0.18515211 10
6.9951143 2.804635 -0.19016975 11
8.8459387 3.4590895 -0.19181317 5
11.772765 4.4946585 -0.15606368 4
18.912281 7.0194349 -0.13613266 3
19.000322 7.0625553 0.53242993 27
19.584648 7.2814865 1.2195206 3
5.0195484 2.0895028 -0.18558186 10
5.8294415 2.3737552 -0.1856212 9
7.0070462 2.785701 -0.19035715 10
8.8788042 3.440551 -0.19405144 4
11.799714 4.4631791 -0.15630478 4
18.966444 6.9708872 -0.13619608 3
19.002714 6.9955053 0.53446913 27
19.583021 7.210741 1.2208225 3
5.0290675 2.0770731 -0.18630117 11
5.8352857 2.3570654 -0.18514723 11
7.0189204 2.7667115 -0.19054633 10
8.9069424 3.4202113 -0.19568926 10
11.831286 4.4331865 -0.15697354 4
19.029926 6.9253111 -0.13676727 3
19.004868 6.9285126 0.53649712 26
19.585857 7.1417141 1.2222077 3
5.0341873 2.0622973 -0.18588394 12
5.8463306 2.3401704 -0.18556994 11
7.031486 2.7454934 -0.19067591 9
8.9407101 3.3984761 -0.19784623 10
11.864105 4.399168 -0.15753508 4
19.10022 6.8746157 -0.13741171 3
19.013683 6.8568268 0.5386138 27
19.58596 7.0645456 1.2236695 3
5.0438795 2.049047 -0.18658477 11
5.8570194 2.324101 -0.18601876 9
7.0436082 2.7253017 -0.19083852 9
8.9645309 3.3747954 -0.19884533 12
11.896166 4.3668966 -0.15815234 4
19.164568 6.8250942 -0.13789296 3
19.021143 6.7883472 0.54062939 26
19.589376 6.9923544 1.2251217 2
5.0489016 2.0342197 -0.186171 10
5.8629956 2.3064361 -0.18552619 10
7.0556655 2.7050517 -0.19100302 10
8.9835758 3.3494196 -0.19924754 11
11.928135 4.3344479 -0.15877146 5
19.243004 6.7799425 -0.13912976 3
19.03783 6.7230568 0.54247832 26
19.606745 6.9249773 1.2268529 2
5.0538721 2.0193748 -0.18575925 9
5.8735776 2.2902763 -0.18597859 11
7.0676579 2.6847436 -0.19116956 10
9.0025425 3.3239443 -0.19965178 9
11.960014 4.3018212 -0.15939194 5
19.288149 6.7233782 -0.13860559 3
19.06378 6.660861 0.54416323 27
19.657089 6.8685436 1.2292569 2
5.0587912 2.004513 -0.18534952 11
5.8794365 2.2725546 -0.18549031 11
7.0795856 2.6643777 -0.19133812 9
9.0167093 3.2968388 -0.19946092 9
11.991802 4.2690191 -0.16001421 4
19.337872 6.6681223 -0.13833648 3
19.08952 6.5985575 0.54584044 30
19.659758 6.7963018 1.2306774 2
5.0683022 1.9911132 -0.18605632 11
5.8899112 2.2563057 -0.18594605 11
7.0914464 2.6439538 -0.19150883 10
9.0355129 3.2711825 -0.19986969 7
12.023495 4.2360411 -0.16063803 4
19.387434 6.6125937 -0.13807058 3
19.134079 6.542284 0.54720473 32
19.714479 6.7410231 1.2331684 2
5.0731225 1.9762009 -0.18565017 11
5.9000487 2.2408943 -0.18642753 10
7.1028881 2.6245723 -0.19171137 10
9.0537786 3.2468688 -0.20031971 9
12.059216 4.206357 -0.16173941 4
19.435797 6.5600443 -0.13789642 3
19.186968 6.4920206 0.54832625 32
19.791796 6.6963587 1.2360613 10
5.0776534 1.9620186 -0.1852662 10
5.9054523 2.2239714 -0.18596953 10
7.1142721 2.6051378 -0.19191581 10
9.067234 3.220979 -0.20017558 10
12.090108 4.174984 -0.16241926 4
19.484013 6.5072384 -0.13772494 3
19.263569 6.4489822 0.54906857 29
19.897627 6.6602793 1.2395524 18
5.0823722 1.9470742 -0.1848641 10
5.9160509 2.2066917 -0.1864062 11
7.1262875 2.5834422 -0.19206303 10
9.086257 3.1936069 -0.20055228 10
12.122151 4.1394978 -0.1629948 4
19.538895 6.4491262 -0.1376304 3
19.365973 6.4064503 0.54961145 26
20.01029 6.618331 1.2433298 4
5.0870385 1.9321126 -0.18446392 10
5.9263163 2.1902523 -0.18686849 12
7.137886 2.5627918 -0.19224197 9
9.0999937 3.1661286 -0.20037514 8
12.153476 4.1058044 -0.16362506 5
19.58304 6.3910398 -0.13712919 3
19.46731 6.3665066 0.55007386 14
20.269974 6.6246166 1.250132 2
5.0916529 1.9171356 -0.18406588 8
5.9318256 2.1723466 -0.18639284 12
7.1494184 2.5420852 -0.19242305 9
9.1183929 3.1400204 -0.20079523 7
12.184703 4.0719357 -0.16425735 5
19.622231 6.3312702 -0.13638449 3
20.061348 6.4754639 0.54291093 4
20.549065 6.6349783 1.2573718 2
5.1008883 1.9035257 -0.18478149 9
5.9419804 2.1558192 -0.18685871 10
7.1561475 2.5199127 -0.19183809 10
9.1319542 3.1123984 -0.20062369 5
12.21583 4.0378933 -0.16489154 6
19.637308 6.264142 -0.13440681 3
20.100836 6.4138708 0.54438829 10
20.713549 6.6089621 1.2622232 2
5.1054025 1.8885 -0.18438703 10
5.9473696 2.1378593 -0.1863876 10
7.1675401 2.4991097 -0.19202405 10
9.1501846 3.0861127 -0.20104891 5
12.246861 4.003675 -0.16552776 5
19.666517 6.2012215 -0.13318068 3
20.197657 6.3690987 0.54498124 9
20.935612 6.5989218 1.2683101 2
5.1098647 1.8734589 -0.18399471 9
5.9574146 2.1212454 -0.18685716 10
7.178864 2.4782498 -0.19221216 9
9.1635675 3.058347 -0.20088321 7
12.277788 3.9692831 -0.16616577 6
19.695518 6.1381655 -0.13196182 3
20.457565 6.3713751 0.54310429 14
21.201017 6.6000395 1.2753414 2
5.1189628 1.8597376 -0.18471497 11
5.9626827 2.1032324 -0.18639058 9
7.1901212 2.457335 -0.19240242 10
9.1816311 3.0318861 -0.20131344 7
12.308618 3.9347172 -0.16680604 7
19.729103 6.0763559 -0.13099664 3
20.693705 6.3649874 0.541623 17
21.457069 6.5966005 1.2822025 2
5.1233244 1.8446494 -0.18432635 10
5.9678888 2.0852003 -0.18592638 10
7.2060647 2.4377065 -0.19336146 9
9.1996098 3.0053277 -0.20174581 9
12.339346 3.899977 -0.16744834 11
19.767296 6.0157442 -0.13028389 3
20.901184 6.3488121 0.54060245 13
5.1323318 1.8308491 -0.18504947 10
5.9775076 2.0693693 -0.18642443 9
7.2168722 2.417783 -0.19358414 11
9.2170916 2.980144 -0.20221812 6
12.364605 3.8657393 -0.16772574 11
19.756275 5.9447641 -0.12720585 4
21.160736 6.3496838 0.53872883 11
5.1363807 1.8164717 -0.18468374 10
5.9823422 2.0521908 -0.18598765 11
7.2276187 2.3978093 -0.19380909 9
9.224926 2.9522307 -0.20150918 12
12.394564 3.8326969 -0.16842383 12
19.817184 5.8939009 -0.12781781 10
21.396427 6.3422165 0.53724241 10
5.145298 1.8025942 -0.18540972 10
5.9923601 2.0344691 -0.18644363 10
7.2389221 2.3755369 -0.1939792 9
9.223896 2.9187446 -0.19954759 22
12.420737 3.7941277 -0.1686042 12
19.894247 5.8399849 -0.12899762 11
21.658396 6.3325663 0.53561282 10
26.107931 7.5628328 1.3881485 8
5.1494603 1.7874147 -0.18502849 10
6.0020709 2.0176015 -0.18692428 11
7.2450705 2.3530545 -0.19341522 8
9.2271299 2.8880522 -0.19821984 14
12.446236 3.7574422 -0.16883892 11
19.94615 5.7824278 -0.12903917 8
21.909918 6.3221598 0.53406501 13
26.093372 7.46385 1.3895264 15
5.1535697 1.7722205 -0.18464929 10
6.0069776 1.9994332 -0.18647116 10
7.2559175 2.3318114 -0.19361895 9
9.2350531 2.8586338 -0.19748706 14
12.47162 3.7206178 -0.16907674 12
20.007542 5.7271347 -0.12957174 3
22.069818 6.2856512 0.5338738 6
26.083263 7.3663397 1.3909903 21
5.1576262 1.7570118 -0.18427223 10
6.0165753 1.9824818 -0.18695551 10
7.2619128 2.3092694 -0.19306082 9
9.2476788 2.8304408 -0.19734818 13
12.496886 3.6836529 -0.16931754 12
20.063946 5.6702127 -0.12986249 3
22.71332 6.3749218 0.52675545 5
26.048609 7.2626305 1.3919096 17
5.1663523 1.7429954 -0.18500453 10
6.0213599 1.9642632 -0.18650705 10
7.272615 2.2879343 -0.19326943 9
9.2650185 2.8034227 -0.19780236 13
12.522039 3.6465514 -0.16956168 12
20.110516 5.610465 -0.12967002 3
22.6752 6.2833281 0.52946228 2
26.052254 7.1692753 1.3936526 14
5.1703072 1.7277428 -0.18463117 10
6.0308442 1.9472293 -0.18699521 11
7.2832479 2.2665458 -0.19348031 9
9.2822723 2.7763112 -0.19825882 12
12.547074 3.6093121 -0.16980892 12
20.161741 5.5516844 -0.12972444 3
26.055557 7.0759726 1.39538 11
5.1789408 1.7136497 -0.18536657 10
6.0355048 1.9289606 -0.18655139 10
7.2938104 2.2451038 -0.19369358 9
9.2994413 2.7491066 -0.19871789 7
12.571992 3.5719352 -0.17005938 11
20.212795 5.492609 -0.1297825 3
25.550894 6.8426752 0.49329451 35
26.06336 6.9839478 1.3971986 6
5.1827927 1.6983535 -0.18499714 11
6.0448737 1.9118447 -0.18704337 9
7.3043027 2.2236083 -0.19390923 9
9.3165226 2.7218084 -0.19917923 7
12.596793 3.5344214 -0.17031318 12
20.263668 5.4332352 -0.12984443 3
25.567619 6.7550039 0.49544203 17
26.104797 6.9003658 1.3997512 4
5.1913323 1.6841849 -0.18573564 10
6.0491862 1.8944439 -0.18662614 9
7.3144441 2.203196 -0.19415444 9
9.3331509 2.6959064 -0.19967872 8
12.620969 3.4988337 -0.17061955 12
20.313534 5.3769722 -0.12999117 3
25.631554 6.6834669 0.49680004 58
26.169161 6.8269377 1.4027263 5
5.1948948 1.6696125 -0.18538839 11
6.0582194 1.8781657 -0.18714374 11
7.3197155 2.1815896 -0.19363993 9
9.3497019 2.6699181 -0.20018047 8
