# .PCD v0.7 - Point Cloud Data file format
VERSION 0.7
FIELDS x y z intensity
SIZE 4 4 4 4
TYPE F F F F
COUNT 1 1 1 1
WIDTH 1356
HEIGHT 1
VIEWPOINT 0 0 0 1 0 0 0
POINTS 1356
DATA ascii
40.045483 7.7324371 -0.095081389 2
5.075243 0.27994376 -0.19698435 10
5.8906937 0.45039356 -0.20168501 8
6.9710188 0.67624605 -0.19618779 10
8.6970806 1.0370311 -0.1956777 11
11.753991 1.6758859 -0.20030087 9
18.105179 3.0033002 -0.18757933 3
40.133121 7.6076536 -0.093903184 2
5.0783815 0.26496631 -0.19670385 10
5.8992262 0.43354928 -0.20233208 9
6.9803634 0.65563905 -0.19659406 9
8.7028389 1.009411 -0.19516128 9
11.766838 1.6385999 -0.20004815 9
18.147079 2.9488621 -0.1881904 3
40.435829 7.5265598 -0.097834349 2
5.0862398 0.25092858 -0.19757766 10
5.9027147 0.41658759 -0.20201653 8
6.9845819 0.63509202 -0.19621199 9
8.7130823 0.98413694 -0.19530934 9
11.779168 1.6031659 -0.19983417 9
18.168625 2.8932626 -0.18770128 3
40.447926 7.3921328 -0.095049381 2
5.0891271 0.2366643 -0.19731385 10
5.906147 0.39961684 -0.20170265 9
6.9935732 0.61548841 -0.1966415 10
8.71838 0.95784593 -0.1948238 9
11.791385 1.5676792 -0.19962317 8
18.185093 2.8365965 -0.1869275 3
40.842022 7.3335371 -0.10127723 2
5.0921159 0.22163671 -0.19703752 10
5.9098749 0.380844 -0.20135766 9
6.9980836 0.59273326 -0.19622356 10
8.7290039 0.92970836 -0.19492537 9
11.804239 1.5282862 -0.19934481 8
18.207462 2.7747347 -0.1863367 3
5.0950518 0.2066009 -0.19676286 9
5.918179 0.36386734 -0.20201057 9
7.0071507 0.57196283 -0.19663674 9
8.7343864 0.90198183 -0.1944198 9
11.816583 1.4907591 -0.19910544 8
18.233938 2.7167263 -0.18609542 2
5.0980773 0.19080222 -0.19647604 8
5.9216061 0.34594995 -0.20168549 10
7.0112967 0.55024421 -0.19624299 9
8.7445507 0.87514055 -0.19455165 9
11.8288 1.4531724 -0.19886929 9
5.1055522 0.17736936 -0.1973694 9
5.9248042 0.3289144 -0.20137841 9
7.0200195 0.53048491 -0.19667941 9
8.754365 0.8496418 -0.19471079 9
11.840532 1.4174485 -0.19867116 9
17.642569 2.4853091 -0.14793944 16
5.1083336 0.16228515 -0.19709903 11
5.9331002 0.31093842 -0.20201951 9
7.02422 0.50762761 -0.19627029 10
8.7597218 0.82043493 -0.19418842 9
11.852849 1.3778142 -0.19840735 8
17.599813 2.4138005 -0.1436699 11
5.1110625 0.14719099 -0.19683033 10
5.9363427 0.29296672 -0.20169979 9
7.0330009 0.48670518 -0.19669062 9
8.7696085 0.79345536 -0.19432741 10
11.864681 1.3400449 -0.19818133 8
17.600487 2.353389 -0.14205372 10
17.756153 2.3853183 0.44991612 255
5.1185346 0.13291031 -0.19771367 10
5.9443555 0.27581209 -0.20235997 9
7.0417132 0.46572948 -0.19711262 10
8.7794056 0.76642764 -0.1944688 9
11.871477 1.3013712 -0.1974991 8
17.600945 2.2929945 -0.14044452 11
17.756683 2.3243179 0.45118722 255
5.121161 0.11778098 -0.19744784 10
5.947475 0.25780606 -0.20204371 9
7.0454888 0.44389129 -0.19672936 10
8.7842188 0.73852217 -0.19397944 9
11.883048 1.2635138 -0.19728059 7
17.675011 2.2451081 -0.14314586 7
17.752064 2.2625072 0.452564 88
5.123734 0.1026445 -0.19718355 9
5.9505315 0.23978406 -0.20172936 10
7.0540576 0.42283845 -0.19715518 9
8.793828 0.71140981 -0.19412583 10
11.894489 1.2255875 -0.19706517 9
18.437635 2.3151371 0.43816972 5
5.1262546 0.087499082 -0.19692093 8
5.9583673 0.22253269 -0.20239395 9
7.057683 0.40095413 -0.19677621 9
8.7984495 0.68345749 -0.19364196 11
11.900886 1.1868165 -0.19639462 8
18.473215 2.2531641 -0.18633348 7
18.807972 2.3118439 0.43103752 5
5.1287227 0.072342813 -0.19665986 10
5.9611564 0.20537603 -0.20209855 10
7.0610566 0.3801555 -0.19641834 8
8.8076506 0.6576587 -0.19381732 10
11.911756 1.1507357 -0.19621986 9
18.482664 2.1945248 -0.18532652 6
19.202673 2.313134 0.42332682 8
5.1358275 0.058677018 -0.1975624 9
5.9638882 0.18821311 -0.20180482 9
7.0643616 0.35934281 -0.19606251 9
8.8118658 0.63105464 -0.19336277 10
11.917588 1.1138471 -0.19558996 9
18.49192 2.1358442 -0.18432528 6
19.5877 2.310298 0.41587725 7
5.1381946 0.043487608 -0.19730407 10
5.9716902 0.16996163 -0.20245856 9
7.072813 0.33706468 -0.19647735 9
8.8213253 0.60237861 -0.19349521 12
11.923892 1.0730475 -0.19489807 10
18.526598 2.0746937 -0.18465275 4
19.973923 2.2982509 0.40857664 7
5.1405087 0.028292298 -0.19704753 9
5.9744411 0.15185601 -0.20215303 9
7.0761395 0.31511825 -0.19610733 9
8.8304739 0.57505012 -0.19365388 10
11.929756 1.034174 -0.19424337 10
18.545792 2.0142407 -0.18418103 3
20.607048 2.3234103 0.39570051 16
5.1475873 0.013777375 -0.19794077 10
5.9771285 0.13374054 -0.2018494 9
7.0793896 0.29315823 -0.19573945 9
8.839529 0.54768002 -0.19381505 10
11.940413 0.99598479 -0.19405037 9
18.569721 1.9543889 -0.18399936 3
20.701302 2.2663288 0.39497244 30
5.1497979 -0.0014528036 -0.19768709 10
5.9797525 0.11561877 -0.20154768 8
7.0874505 0.27186978 -0.19617862 9
8.8435793 0.51956546 -0.19334763 11
11.946007 0.95705426 -0.19340366 9
18.588509 1.8937078 -0.18353814 3
20.74095 2.2009373 0.39546314 2
5.1519551 -0.016688228 -0.19743496 11
5.9871726 0.098146915 -0.20222312 8
7.090549 0.24987614 -0.19581527 9
8.8524466 0.49210846 -0.19351381 9
11.956401 0.91877401 -0.19321781 10
18.607084 1.8329444 -0.18308252 3
5.1540594 -0.031933427 -0.1971845 10
5.9896712 0.079992414 -0.2019251 9
7.0935712 0.22786582 -0.19545418 9
8.8563023 0.46395326 -0.19305223 11
11.966663 0.88044155 -0.19303554 9
18.630402 1.7727253 -0.1829161 3
42.897594 5.0224762 -0.093721211 2
5.1561103 -0.047185838 -0.19693571 9
5.9921083 0.061824441 -0.20162886 9
7.1014109 0.20648044 -0.19589931 10
8.8649797 0.4364177 -0.19322354 10
11.971854 0.84142554 -0.19240087 8
18.648567 1.7117391 -0.1824711 3
42.971569 4.8825998 -0.092540562 2
5.1581078 -0.06244117 -0.19668859 11
5.9993477 0.044259131 -0.20230895 9
7.1042814 0.18443233 -0.19554263 9
8.8686419 0.40821898 -0.19276768 10
11.981851 0.80300391 -0.19222623 8
18.666525 1.6506467 -0.18203157 3
23.724127 2.2950261 0.33500546 11
5.1648827 -0.077119291 -0.19758934 11
6.0016594 0.026060104 -0.20201641 9
7.1119738 0.16297364 -0.19599181 9
8.8771286 0.38061088 -0.19294411 10
11.991714 0.7645365 -0.19205517 8
18.684271 1.5894563 -0.18159765 3
23.694466 2.2100351 0.33716184 40
5.1667762 -0.092407167 -0.1973452 9
6.0039077 0.0078505874 -0.20172578 10
7.1146927 0.14089191 -0.19563955 10
8.8805962 0.35236603 -0.19249398 10
11.996502 0.72542369 -0.19143218 8
18.706764 1.5287704 -0.1814521 3
23.704205 2.130024 0.3384344 13
5.1734514 -0.10714883 -0.19824868 9
6.0109644 -0.0098037124 -0.2024104 9
7.1222367 0.11936551 -0.19609267 9
8.8888931 0.32468206 -0.19267589 10
12.0061 0.68686426 -0.19126874 7
18.719135 1.4668067 -0.18074661 3
5.1752396 -0.12246799 -0.19800752 10
6.0130873 -0.028045177 -0.20212346 9
7.1297078 0.09779644 -0.19654733 9
8.8921661 0.29639673 -0.19223148 10
12.010616 0.64770722 -0.19065398 8
18.736254 1.4053397 -0.1803295 5
5.1769743 -0.1377916 -0.19776791 11
6.0200229 -0.0457654 -0.20281142 10
7.1321998 0.075650215 -0.19620162 9
8.9002686 0.26863825 -0.1924184 10
12.019945 0.60907066 -0.19049805 9
18.753164 1.3437696 -0.17991775 5
26.718348 2.2153261 0.2772482 27
5.1834965 -0.1526188 -0.19867522 10
6.0220203 -0.064035714 -0.20252818 10
7.1395226 0.054009259 -0.19666046 9
8.9033451 0.24031341 -0.19197983 10
12.024189 0.56986511 -0.1898914 10
18.769857 1.2821072 -0.17951185 5
26.693291 2.1211026 0.27940184 35
5.1851263 -0.1679689 -0.19843882 10
6.023859 -0.081401467 -0.20226079 10
7.141746 0.032941461 -0.19633633 9
8.9061756 0.21339869 -0.19156605 10
12.033051 0.53310418 -0.18977314 9
18.781055 1.2229856 -0.17887825 5
5.186625 -0.18256086 -0.19821566 9
6.02564 -0.098771095 -0.20199519 9
7.1438994 0.011866391 -0.19601434 10
8.9138546 0.18695563 -0.19178253 10
12.04179 0.49630427 -0.18965834 10
18.797022 1.1643089 -0.17853159 5
5.1881504 -0.19792575 -0.19798237 12
6.0275412 -0.11797568 -0.20170385 8
7.1511121 -0.010975242 -0.19646233 10
8.9167824 0.15716916 -0.19133121 9
12.050788 0.45552778 -0.1894874 10
18.808434 1.0987854 -0.17781407 4
5.1896219 -0.21329591 -0.19775075 10
6.0292873 -0.1362744 -0.20142823 9
7.1532235 -0.033192158 -0.19612807 9
8.9244118 0.12923694 -0.1915316 10
12.054496 0.41620898 -0.18889672 9
18.824286 1.0368031 -0.1774314 5
29.620865 2.0284092 0.22279382 9
5.1910396 -0.22866741 -0.19752079 10
6.0309687 -0.1545791 -0.20115477 10
7.1552577 -0.055419207 -0.19579607 9
8.927001 0.10083646 -0.19110781 10
12.063029 0.37731349 -0.18876332 9
18.834957 0.97428513 -0.17677397 4
29.759405 1.9391603 0.22152311 13
5.1924038 -0.24404731 -0.19729251 10
6.0374746 -0.17247856 -0.20185441 9
7.1572146 -0.077653944 -0.19546658 10
8.9344349 0.072834849 -0.19131345 10
12.071426 0.33837622 -0.18863398 9
18.840435 0.91129327 -0.17584258 5
31.152912 1.95506 0.19347978 2
5.1937146 -0.25943002 -0.19706589 9
6.0390306 -0.19081163 -0.20158452 8
7.1640134 -0.099493325 -0.19593984 9
8.9368286 0.044395566 -0.1908955 9
12.079692 0.29938763 -0.18850809 9
18.850666 0.84869468 -0.17519802 4
32.621605 1.967329 0.16397738 6
5.1949716 -0.27481961 -0.19684094 10
6.0454121 -0.20877269 -0.20228738 7
7.1658168 -0.12175843 -0.19561487 9
8.944068 0.016325057 -0.19110662 10
12.08782 0.26035833 -0.18838602 9
18.855705 0.78565717 -0.17428023 4
32.71019 1.8623905 0.16390228 5
5.1961751 -0.29021338 -0.19661766 12
6.046771 -0.2262128 -0.20203453 9
7.17238 -0.14255375 -0.19610804 9
8.9461565 -0.010727644 -0.19071513 10
12.095664 0.22325665 -0.18829638 9
18.860287 0.72574592 -0.17341441 4
5.1972685 -0.30483928 -0.19640714 10
6.0480719 -0.24365973 -0.20178348 10
7.1739516 -0.16372961 -0.19580358 9
8.9531031 -0.03743434 -0.190952 10
12.103389 0.18610734 -0.18820995 8
18.864672 0.66583109 -0.17255503 4
5.2032242 -0.31991729 -0.19732982 12
6.0543365 -0.26262072 -0.20247823 11
7.180532 -0.18681541 -0.19626898 10
8.9552088 -0.067363739 -0.19052535 10
12.101324 0.14429969 -0.18716758 8
18.869289 0.59958124 -0.1716122 4
5.2042704 -0.33533919 -0.19711119 9
6.0555773 -0.28101158 -0.20221776 11
7.1820302 -0.20913091 -0.19595319 10
8.9571133 -0.095877826 -0.19012231 10
12.113887 0.10544276 -0.18751258 8
18.873457 0.53648126 -0.17072159 5
5.2101216 -0.35047475 -0.19803625 9
6.0567541 -0.29940733 -0.20195943 9
7.1834507 -0.23145813 -0.19563979 9
8.96387 -0.12409899 -0.19034702 10
12.106432 0.06531167 -0.1860562 8
18.907307 0.47516084 -0.17150897 5
9.5553808 -0.085111976 0.65755689 4
9.3567429 -0.095902622 0.96182609 131
5.211061 -0.36592105 -0.19782084 10
6.0578666 -0.31780207 -0.20170301 10
7.1897206 -0.25351304 -0.19612747 10
8.9655762 -0.15264383 -0.18994993 10
12.11375 0.026092291 -0.18595797 9
18.881134 0.41022801 -0.16896087 5
9.3684797 -0.12537152 0.96238363 255
5.2119465 -0.38137037 -0.1976071 11
6.0589147 -0.33620542 -0.20144862 9
7.1909862 -0.27586293 -0.19581884 10
8.9721365 -0.18093264 -0.19018036 11
18.944466 0.35025877 -0.17142731 2
9.5089617 -0.14917952 0.65944624 255
9.3551521 -0.15625498 0.96258527 255
5.2127776 -0.3968181 -0.19739515 11
6.0598989 -0.35461017 -0.20119637 10
7.1921735 -0.29822129 -0.19551259 10
8.9736433 -0.20949793 -0.18978935 10
9.4406424 -0.18318522 0.66131634 142
9.3517027 -0.18654302 0.96292406 255
5.2135549 -0.41227335 -0.19718486 9
6.0608187 -0.37302053 -0.20094603 9
7.1932831 -0.32057655 -0.19520885 10
8.9800062 -0.23784927 -0.19002515 10
9.3691025 -0.21892262 0.064621568 39
9.4156981 -0.21575046 0.36101076 51
9.4271212 -0.21418068 0.66203731 255
9.3431511 -0.21702787 0.96318787 255
5.2142787 -0.4277291 -0.19697624 11
6.0665755 -0.3912279 -0.20166594 10
7.194314 -0.34294212 -0.19490749 10
8.9813156 -0.26644528 -0.1896401 10
9.3704643 -0.24890918 0.065024912 51
9.4020958 -0.24656144 0.3622483 51
9.4134922 -0.24507231 0.66275358 255
9.3494759 -0.24681044 0.96366179 244
5.2149487 -0.44318897 -0.1967693 12
6.0673676 -0.40965882 -0.20141953 11
7.1952677 -0.36531103 -0.19460863 10
8.987483 -0.29485741 -0.18988162 10
9.366745 -0.27908996 0.065874577 39
9.4033489 -0.27669606 0.36264992 39
9.4097433 -0.27547565 0.66325891 255
9.3906689 -0.2752541 0.96463454 130
5.2155647 -0.45865133 -0.19656414 11
6.0680952 -0.42809254 -0.20117503 11
7.2010765 -0.38750631 -0.19510931 11
8.9885931 -0.32348371 -0.18950266 10
9.4294424 -0.3059428 0.36166376 34
9.4008894 -0.30602807 0.66386336 255
9.4167767 -0.30451718 0.96539187 131
5.2209926 -0.47396049 -0.19750077 10
6.0687275 -0.445609 -0.20094472 10
7.2018361 -0.40877897 -0.19482988 10
8.9945126 -0.35051927 -0.18976873 10
9.3937798 -0.33674604 0.064398229 7
9.5052834 -0.33224466 0.35789028 29
9.3868847 -0.33516538 0.66454655 255
9.4477358 -0.33228293 0.96620071 128
9.5534916 -0.34947276 1.2752421 38
5.2214766 -0.48866755 -0.19730884 11
6.0742044 -0.46298537 -0.20168358 10
7.2074599 -0.42991006 -0.19534928 10
8.9953852 -0.37773299 -0.18941432 10
12.122475 -0.28654045 -0.18132132 2
9.6010075 -0.35846147 0.35301435 6
9.3827744 -0.36391994 0.66502059 255
9.4586143 -0.3608343 0.96671963 115
9.51437 -0.37977168 1.2736397 25
5.2219334 -0.50415224 -0.19710857 11
6.0747719 -0.48236778 -0.201433 10
7.2081399 -0.45344153 -0.19504529 10
9.0012035 -0.4076938 -0.18964845 10
12.138582 -0.32770622 -0.18213207 2
9.6068993 -0.39069885 0.3531552 27
9.4036331 -0.39501324 0.66501862 255
9.474474 -0.39236677 0.96734792 124
9.5101604 -0.41204277 1.2738028 33
5.2223368 -0.51963657 -0.19690984 10
6.0752459 -0.50082654 -0.20119637 11
7.2087073 -0.47585833 -0.19475824 11
9.0019197 -0.4363631 -0.18928164 10
9.5876846 -0.42198271 0.35465318 30
9.4243469 -0.42474383 0.66499567 255
9.4851894 -0.42260027 0.96788174 129
9.5107975 -0.44265553 1.2741903 21
5.2226863 -0.5351243 -0.19671291 11
6.0756555 -0.51928723 -0.20096189 10
7.2091975 -0.49827668 -0.19447368 11
9.0025358 -0.46503896 -0.18891793 11
9.8251495 -0.44921815 0.027380586 39
9.5833311 -0.45285451 0.35531858 36
9.4449568 -0.45462066 0.66497111 255
9.5007982 -0.45280558 0.96848607 128
5.2229805 -0.55060893 -0.19651777 12
6.0760007 -0.53775156 -0.20072931 12
7.2096086 -0.52069354 -0.19419163 10
9.0080128 -0.49364391 -0.18917948 10
9.8356657 -0.48064393 0.026880682 56
9.6088247 -0.48324353 0.35432675 34
9.4604664 -0.48471233 0.66504657 255
9.5163012 -0.48312539 0.96908832 121
5.2232218 -0.56609869 -0.19632429 11
6.0762691 -0.55529404 -0.20051032 10
7.2099271 -0.54199088 -0.19392604 10
9.0084114 -0.52089721 -0.18883985 11
9.8510323 -0.51050007 0.025910616 59
9.619216 -0.51243573 0.35414058 31
9.4908504 -0.51321208 0.66479707 255
9.5366812 -0.51196158 0.96974295 106
5.2234006 -0.58081502 -0.19614214 11
6.0764794 -0.57283467 -0.20029324 11
7.2101746 -0.56329226 -0.19366258 10
9.0087185 -0.54815662 -0.18850309 10
9.8563404 -0.54053354 0.025834084 32
9.6295099 -0.54169816 0.35395223 3
9.5069752 -0.54134649 0.96965969 119
5.2284045 -0.596286 -0.19709057 10
6.0766435 -0.59222203 -0.20005554 10
7.20543 -0.58685482 -0.19257897 11
9.0089531 -0.57829326 -0.18813413 11
9.4921808 -0.57350862 0.9698295 116
5.2284861 -0.61179024 -0.1969021 13
6.0816402 -0.61068588 -0.2007969 10
7.2055321 -0.60926139 -0.19230705 10
9.0090742 -0.60698545 -0.18778628 11
9.4972668 -0.60401773 0.97027224 115
5.2285132 -0.62729841 -0.19671518 10
6.0816665 -0.62916815 -0.20057446 11
7.2055564 -0.63166505 -0.19203764 11
9.0090952 -0.63568467 -0.18744153 11
12.217221 -0.64290649 -0.18493503 10
5.223619 -0.64277476 -0.19539207 12
6.0816283 -0.64765298 -0.20035404 9
7.205502 -0.65406907 -0.19177073 12
9.009016 -0.66438079 -0.18709987 12
12.217097 -0.68279952 -0.18446058 12
18.930557 -0.72138321 -0.15554333 4
5.2235384 -0.65826643 -0.19520897 13
6.0815253 -0.66613483 -0.20013577 9
7.2103066 -0.67652255 -0.19230062 11
9.0088358 -0.69308025 -0.18676156 12
12.216833 -0.72268522 -0.1839909 12
18.940104 -0.78478658 -0.15534651 4
5.2234035 -0.67375767 -0.19502753 9
6.0862641 -0.68468034 -0.20088452 9
7.2100959 -0.6989423 -0.1920386 12
9.0085573 -0.72177833 -0.18642646 13
12.206473 -0.76244861 -0.18263251 11
18.929457 -0.84799993 -0.15406048 5
38.377659 -1.095233 0.090176761 3
5.2183461 -0.68916553 -0.19371063 9
6.0860457 -0.7022559 -0.20068079 11
7.2098236 -0.72024339 -0.19179195 12
9.0032377 -0.74895644 -0.18549103 13
12.196003 -0.80014408 -0.18130237 7
18.908655 -0.90782559 -0.15227133 6
38.380894 -1.2199261 0.091514528 62
5.2181172 -0.70386273 -0.19354171 8
6.0857687 -0.71983093 -0.20047897 11
7.2094808 -0.74154115 -0.19154757 12
8.9978285 -0.77610016 -0.18455905 13
12.185409 -0.8377769 -0.17997688 9
18.89764 -0.96770114 -0.15103716 7
38.643608 -1.349704 0.087665677 9
5.2178235 -0.7193352 -0.19336563 8
6.0853949 -0.73925143 -0.20025808 12
7.2090197 -0.76507819 -0.19128019 12
8.9922695 -0.80607808 -0.18359774 17
12.164646 -0.87908107 -0.17771965 10
18.886292 -1.0338219 -0.14973891 6
5.222343 -0.73493469 -0.19432813 9
6.0849724 -0.75774848 -0.20004994 11
7.2084999 -0.78749686 -0.19102806 14
8.9816771 -0.83444995 -0.18203741 17
12.143784 -0.91825843 -0.17549103 19
18.864796 -1.0964534 -0.14793831 8
37.782921 -1.5978156 0.1076594 4
5.221941 -0.75042152 -0.19415528 10
6.0844855 -0.77623904 -0.19984382 10
7.2029676 -0.80976379 -0.18998533 10
8.9759436 -0.86290365 -0.18109995 13
12.112834 -0.9569844 -0.17237753 15
18.828115 -1.1584896 -0.14532775 11
37.784294 -1.7270827 0.10899234 6
5.2214847 -0.76590276 -0.19398433 8
6.0839348 -0.79473281 -0.19963986 12
7.2022915 -0.83215761 -0.18973857 12
8.9651546 -0.89115334 -0.17954725 10
12.101659 -0.99617815 -0.17105192 11
18.831141 -1.2216074 -0.14490891 11
38.134949 -1.8680907 0.10340124 3
5.2209744 -0.78138608 -0.19381505 9
6.0833187 -0.81322211 -0.19943792 13
7.1966047 -0.85436898 -0.18870145 10
8.9592266 -0.91950703 -0.1786173 13
12.100303 -1.0356672 -0.17062205 11
38.425121 -2.0093026 0.099004209 2
5.2204103 -0.79686797 -0.19364756 9
6.0826387 -0.83171153 -0.19923812 12
7.1957741 -0.87674022 -0.18845981 11
8.9531984 -0.94783115 -0.17769104 11
12.123688 -1.0761545 -0.17242163 7
38.425056 -2.1408582 0.10031813 2
5.2197919 -0.81234539 -0.19348186 9
6.0867949 -0.85041463 -0.20000345 13
7.1948647 -0.89910901 -0.18822092 10
8.9668999 -0.97698575 -0.17924231 7
12.117076 -1.1155007 -0.1715551 5
25.134947 -1.6877574 0.36278465 112
5.2239833 -0.82805467 -0.19445366 9
6.0859847 -0.86891353 -0.1998077 11
7.1938777 -0.9214772 -0.18798441 10
8.9606752 -1.0053012 -0.17832249 6
25.146055 -1.7734845 0.36338562 153
5.2232561 -0.8435443 -0.19429129 8
6.0851102 -0.88740951 -0.19961399 12
7.1928129 -0.94383872 -0.18775052 10
8.9593067 -1.0338311 -0.17802447 6
15.896151 -1.3873372 0.01771456 4
25.161856 -1.8595566 0.36388031 76
5.2224751 -0.85903382 -0.1941306 9
6.0792723 -0.905635 -0.19845992 12
7.1867404 -0.96593112 -0.18672711 9
15.863486 -1.4384542 0.019888103 4
21.947758 -1.7697991 0.42751536 88
32.098019 -2.3225107 1.325289 2
5.2216401 -0.87451792 -0.19397181 10
6.0782695 -0.92411017 -0.19827062 14
7.175662 -0.98769546 -0.18491501 5
15.845605 -1.4902116 0.021239281 8
21.968571 -1.8451481 0.42778125 148
29.621302 -2.2886882 1.2881136 36
5.2207513 -0.88999921 -0.19381481 9
6.0723047 -0.94227999 -0.19712108 9
7.1694384 -1.0096939 -0.18389767 5
10.188079 -1.1951674 0.0018321276 5
15.85246 -1.5433933 0.021227002 11
19.120077 -1.7442648 0.4839589 39
32.100273 -2.5422192 1.3277363 2
5.2198081 -0.90547943 -0.19365948 9
6.0712323 -0.95980573 -0.19694537 8
10.191107 -1.2266786 0.0016999841 5
15.844351 -1.5930274 0.021996677 12
19.131212 -1.8060774 0.48427403 129
36.259457 -2.916126 1.3936436 11
5.2188621 -0.92018288 -0.19351357 7
6.0603118 -0.97666109 -0.19484752 6
6.7185359 -1.0214858 -0.11146784 8
7.5799327 -1.0801361 -0.0056290627 6
10.194031 -1.2582116 0.0015646815 5
19.10224 -1.8652493 0.48535883 4
36.236645 -3.032829 1.3945694 10
5.2129569 -0.93530345 -0.1922273 10
6.0687847 -0.99669242 -0.19658178 5
6.6776543 -1.0404046 -0.10492593 7
7.5881181 -1.1057603 -0.0066195726 7
10.181714 -1.2919874 0.0027884245 6
14.711782 -1.617337 0.084219277 10
16.569536 -1.7509114 0.53506309 10
36.616478 -3.190793 1.401922 2
5.216711 -0.95112193 -0.19321173 5
6.0870361 -1.0166012 -0.20024997 4
6.6810961 -1.061348 -0.10551775 7
7.5814524 -1.129148 -0.0057730675 7
10.169395 -1.3240435 0.0039916039 16
14.71819 -1.6667066 0.084146917 8
14.671209 -1.6633884 0.57229334 2
20.559683 -2.1071758 1.1514008 36
5.2543921 -0.96964645 -0.20213658 3
6.1443443 -1.0397247 -0.21161109 16
6.679543 -1.0819261 -0.10532093 8
7.5796523 -1.1528838 -0.0055463314 6
10.161936 -1.3564167 0.0047472715 14
14.704514 -1.714551 0.085151196 8
14.742235 -1.7178133 0.57130921 6
20.504503 -2.1723762 1.1512744 77
5.3017049 -0.98923194 -0.21332842 9
6.0890818 -1.0540005 -0.20085913 8
6.6828384 -1.1029097 -0.10591716 7
7.5777707 -1.1766098 -0.0053223372 6
10.154364 -1.3887473 0.0054989457 10
14.690673 -1.7623259 0.086149454 6
20.567509 -2.2464838 0.45915776 36
20.533813 -2.2441955 1.1524718 34
5.3052673 -1.0054076 -0.21431476 12
6.0875621 -1.0725032 -0.20068616 6
6.6860595 -1.123921 -0.10651541 7
7.5708604 -1.1999092 -0.0044845939 7
10.151642 -1.4214507 0.0058035851 9
12.468026 -1.6204939 0.20706612 38
39.618099 -3.9513245 0.092172146 18
5.2990723 -1.020745 -0.21303529 12
6.0859771 -1.091006 -0.20051521 7
6.684288 -1.1445193 -0.10632539 8
7.5688143 -1.2236049 -0.0042662621 10
10.153768 -1.4545968 0.0056619048 10
12.429663 -1.6581851 0.20933074 130
39.700859 -4.0952806 0.091593325 2
24.156996 -2.7071607 1.2113056 28
5.2831254 -1.0351446 -0.20949084 9
6.079442 -1.1090477 -0.19938558 7
6.6873603 -1.1655698 -0.10692781 8
7.5568047 -1.2463794 -0.0028184056 19
10.155775 -1.4877622 0.0055167675 10
12.450837 -1.7011642 0.20835114 140
13.630442 -1.8111385 0.59417987 2
24.099754 -2.7842283 1.2112552 40
5.2719817 -1.0499072 -0.20708257 9
6.072845 -1.1270516 -0.19825834 7
6.6903572 -1.186645 -0.10753238 9
7.5496564 -1.2695504 -0.0019899607 17
10.157664 -1.5209557 0.0053681731 9
12.456942 -1.7428619 0.20817703 135
5.2656355 -1.0650787 -0.20581001 10
6.0711598 -1.1445805 -0.1981023 11
6.6933808 -1.2067165 -0.10814822 11
7.5376081 -1.2910106 -0.00055903196 13
10.159601 -1.5525367 0.0052015781 10
13.607102 -1.8971919 0.59524542 25
13.559755 -1.9252672 1.49506 31
5.2641602 -1.0799317 -0.20567924 10
6.069417 -1.1621013 -0.19794828 11
6.6963367 -1.2268164 -0.10876596 15
7.5304284 -1.3129034 0.00025308132 11
10.161429 -1.5841367 0.0050319433 9
13.566711 -1.9354274 0.14825702 21
13.563011 -1.9356667 0.59638 37
13.543765 -1.9343035 1.0450635 50
13.55035 -1.9672621 1.4951726 33
5.2625546 -1.095561 -0.20554346 9
6.0625439 -1.1809394 -0.19681996 8
6.699007 -1.2490042 -0.10936767 12
7.5278635 -1.3376386 0.00046718121 10
10.162807 -1.6190324 0.0048872232 7
13.571749 -1.9833484 0.1481232 19
13.56804 -1.9836279 0.59659398 30
13.563693 -1.9838349 1.0458652 34
13.550246 -2.0147586 1.4958272 31
5.2608953 -1.1111804 -0.20540959 9
6.0605807 -1.1993545 -0.19666225 8
6.6967983 -1.2696493 -0.10919112 9
7.5253377 -1.3611805 0.00066828728 10
10.159281 -1.6517723 0.005166471 10
13.571888 -2.0285366 0.14823443 10
13.558228 -2.0277529 0.59706897 12
13.553862 -2.0280066 1.0461653 13
5.2543416 -1.1262487 -0.20414478 7
6.0585537 -1.2177601 -0.19650668 10
6.6994243 -1.2908435 -0.1098063 9
7.5227284 -1.3847203 0.00086665154 9
10.160589 -1.6850584 0.0050002933 10
13.611554 -2.0782638 0.14618969 4
13.54388 -2.0721195 1.0464599 3
5.2477374 -1.1412776 -0.20288223 9
6.0564613 -1.2361609 -0.19635338 10
6.7019744 -1.3120587 -0.11042356 7
7.5249643 -1.408828 0.00044715405 9
10.16178 -1.718371 0.004830718 7
25.583298 -3.5295548 0.36818314 14
5.2314124 -1.1550986 -0.19935685 7
6.0494351 -1.2539624 -0.19524258 10
6.6995459 -1.3327134 -0.11025399 9
7.5221891 -1.432363 0.00064015388 8
10.157909 -1.7511067 0.0050987601 10
25.553144 -3.6137104 0.3692683 39
25.221657 -3.5753357 1.2360311 78
5.2198782 -1.1694152 -0.19696647 8
6.042347 -1.2717273 -0.19413394 12
6.7019458 -1.353965 -0.11087567 10
7.5193319 -1.455891 0.00083035231 7
10.158867 -1.7844343 0.0049217939 10
15.656746 -2.4688902 0.035605133 10
25.175451 -3.6544929 0.37695384 10
25.216125 -3.6613343 1.2367978 84
5.2034678 -1.1830391 -0.19344634 17
6.0400672 -1.2900712 -0.19398731 15
6.7042694 -1.3752451 -0.11149955 11
7.5163922 -1.4794061 0.0010178089 6
10.154765 -1.8171601 0.0051823258 9
15.62546 -2.5176215 0.037359357 10
25.149841 -3.7377245 0.37791255 35
25.230124 -3.749893 1.2378769 67
5.187016 -1.1965563 -0.18992871 14
6.0085311 -1.3045768 -0.18808681 4
6.7065167 -1.3965499 -0.11212558 11
7.5084519 -1.5022645 0.0018170476 6
10.150549 -1.8498669 0.0054389238 9
15.623715 -2.5700684 0.037497103 10
29.768122 -4.4316468 0.29061502 6
25.248764 -3.8392301 1.2390277 52
5.1656961 -1.2093184 -0.18528205 10
6.0500278 -1.3277797 -0.19658512 13
6.7088242 -1.4168425 -0.11276168 7
7.505507 -1.5245709 0.0019898415 6
10.146438 -1.8809285 0.0056791902 9
15.612237 -2.6185966 0.038145006 11
28.972565 -4.4221525 0.30621636 4
5.1589193 -1.2231741 -0.18403894 10
6.0574007 -1.3465695 -0.19836956 11
6.706172 -1.4364837 -0.11261141 9
7.5024896 -1.5468645 0.0021601319 6
10.112621 -1.9078842 0.0085594654 8
15.615439 -2.6691267 0.037983477 10
28.241774 -4.4163179 0.32054645 10
27.262167 -4.2832427 1.2734987 19
5.1616359 -1.23912 -0.18505532 10
6.0693073 -1.3679459 -0.20110065 9
6.7080541 -1.4588783 -0.11323607 11
7.5039797 -1.5721922 0.0017312765 6
10.097999 -1.9406723 0.0096971393 9
15.612793 -2.7241695 0.03812331 11
27.435772 -4.4044857 0.33630663 15
27.317825 -4.3902378 1.2753588 8
5.1642947 -1.2550898 -0.18607312 10
6.071548 -1.3870881 -0.2019226 8
6.7100005 -1.4802592 -0.11387086 10
7.5006351 -1.5956526 0.0019050241 6
10.073637 -1.9703199 0.011698961 7
15.610321 -2.7766337 0.03823781 11
27.016756 -4.4384623 0.34467295 21
25.830229 -4.2682028 1.2518699 27
5.1668959 -1.2710853 -0.1870926 7
6.0688658 -1.4055326 -0.20178765 11
6.7118697 -1.5016673 -0.11450779 10
7.5021162 -1.619832 0.0014621615 7
10.059033 -2.0012805 0.012815475 7
15.57803 -2.8246968 0.039951682 10
26.494003 -4.4540539 0.35497186 14
25.81237 -4.354991 1.2524229 19
5.1646228 -1.2863758 -0.18698233 9
6.0661197 -1.423965 -0.20165497 18
6.7136602 -1.5230982 -0.11514688 10
7.4986048 -1.643289 0.0016305447 9
10.044328 -2.0321512 0.013927579 10
15.560392 -2.874819 0.040855885 10
25.8578 -4.4487162 0.3673833 11
25.54217 -4.4031739 1.2488158 15
5.1671095 -1.302406 -0.18800479 10
6.0633082 -1.4423907 -0.20152444 13
6.7153759 -1.5445465 -0.11578816 10
7.4999151 -1.6674986 0.0011823773 8
10.03444 -2.0637083 0.014595568 10
15.527789 -2.9225218 0.042555273 13
25.355312 -4.4598303 0.37723467 18
5.1647277 -1.317697 -0.1878981 11
6.0507412 -1.4592569 -0.1994794 13
6.721889 -1.5668008 -0.11721945 10
7.4962368 -1.6909441 0.0013452172 9
10.019529 -2.0944209 0.015698969 9
15.529543 -2.9755511 0.042377353 13
25.124565 -4.5108709 0.38192731 10
5.162292 -1.3329797 -0.18779308 10
6.0479555 -1.476711 -0.19935971 12
6.7236128 -1.5872803 -0.11787206 11
7.4975657 -1.714004 0.00088405609 9
10.009692 -2.1242461 0.016347826 10
15.52167 -3.0244396 0.042710423 13
23.878078 -4.3902369 0.40574238 21
23.977236 -4.4092045 1.2253283 17
5.1599298 -1.3474886 -0.18769509 10
6.0305891 -1.4917414 -0.19636756 5
6.7301383 -1.6085877 -0.11931419 8
7.4988151 -1.7370868 0.00042057037 7
9.9997597 -2.1540191 0.016992807 9
15.518561 -3.0741136 0.042770803 12
23.6189 -4.4257412 0.41090268 14
23.939861 -4.4820967 1.2254336 20
5.1621928 -1.3635676 -0.18872434 8
6.0128732 -1.508496 -0.19336611 4
6.731369 -1.6311996 -0.11995721 9
7.499588 -1.7625316 -2.9921532e-05 6
9.9940958 -2.1878009 0.017215788 10
15.50949 -3.1280985 0.043126464 11
22.185869 -4.2704082 1.197067 7
5.1595974 -1.3788413 -0.18862456 6
6.0677915 -1.5367897 -0.20474213 9
6.7375574 -1.6536387 -0.12139642 10
7.5053568 -1.7876763 -0.0011039376 6
9.9836788 -2.2190933 0.017863572 9
15.500666 -3.1794884 0.043458939 10
19.183092 -3.8221488 0.49495748 15
19.207989 -3.8289344 1.1481553 5
5.1569495 -1.3941038 -0.18852669 7
6.108078 -1.5629146 -0.21324426 9
6.7388 -1.6752753 -0.12205082 9
7.5061469 -1.8120059 -0.0015672445 6
9.9780617 -2.2512026 0.018067956 9
15.486747 -3.2299669 0.044051945 12
19.127502 -3.8785346 0.49619848 28
19.137589 -3.8828411 1.1475772 32
5.1542478 -1.4093567 -0.18843073 7
6.1096125 -1.5823534 -0.21408528 9
6.744823 -1.6978105 -0.12349421 9
7.5117311 -1.8372409 -0.0026461482 7
9.972333 -2.2832913 0.018268526 7
15.482481 -3.2821646 0.044105351 11
18.924379 -3.910429 1.144603 19
5.1514931 -1.4246023 -0.18833643 7
6.1014233 -1.60004 -0.21301311 9
6.7459059 -1.719503 -0.12415302 10
7.5123425 -1.8616265 -0.0031145215 7
9.9664907 -2.3153648 0.018465281 10
15.487849 -3.3361709 0.043620169 13
18.720877 -3.9357386 0.50419617 17
18.799692 -3.9529417 1.1430954 16
5.148685 -1.4398363 -0.18824404 7
6.0690579 -1.6131549 -0.20715588 14
6.7469087 -1.7412182 -0.12481415 11
7.507988 -1.8851141 -0.0029729009 8
9.960537 -2.3474178 0.018658161 6
15.488113 -3.3893318 0.043395758 12
18.66007 -3.9891155 0.50549459 16
18.670017 -3.9936981 1.1414928 24
5.1458244 -1.4550626 -0.18815356 7
6.0366669 -1.6260556 -0.20130211 15
6.7478347 -1.7629485 -0.12547749 11
7.5084243 -1.9095229 -0.0034466386 6
9.9593639 -2.3803821 0.018408239 4
15.49309 -3.4434602 0.042899251 12
18.800398 -4.0807648 0.50300336 19
18.663019 -4.0571661 1.1419423 16
5.1381292 -1.4693453 -0.18693489 8
5.9994326 -1.637807 -0.19449443 12
6.7486806 -1.7847037 -0.12614316 11
7.5039029 -1.9329965 -0.0033105016 6
9.9580708 -2.4133639 0.0181548 12
15.492967 -3.4966993 0.042663336 10
18.685181 -4.1235266 0.5053001 21
18.528234 -4.0956621 1.1402349 16
5.1351643 -1.4845347 -0.1868481 7
5.9910631 -1.655039 -0.19343346 13
6.7494464 -1.8064789 -0.12681109 8
7.4992995 -1.9564574 -0.0031772256 6
9.9664316 -2.4482937 0.017020345 12
15.468167 -3.5451045 0.043751836 10
18.447319 -4.1410975 0.50988531 19
18.378696 -4.1303091 1.138267 11
5.1321473 -1.4997138 -0.18676311 7
5.9922566 -1.6741744 -0.19428915 13
6.750134 -1.8282703 -0.12748146 9
7.4946136 -1.9799021 -0.0030468106 6
9.9600143 -2.4803452 0.017198324 13
15.42853 -3.5903873 0.045631349 11
18.479017 -4.2117271 0.50939929 24
18.322218 -4.1828723 1.1378605 15
5.1290779 -1.5148778 -0.1866799 8
5.9935656 -1.6924214 -0.19515175 8
6.7509561 -1.8490393 -0.12815958 9
7.4949465 -2.0031567 -0.0035376549 6
9.9489355 -2.509768 0.017802238 9
15.399059 -3.6348984 0.046958148 13
18.486595 -4.2744656 0.50934976 17
18.300491 -4.2391038 1.1380094 21
5.1261125 -1.5292777 -0.18660265 7
5.9900079 -1.7096819 -0.19505912 6
6.7517052 -1.86983 -0.12883997 8
7.4952006 -2.026428 -0.0040310621 7
9.9377642 -2.5391345 0.018402398 10
15.364567 -3.6782296 0.048544586 12
18.400993 -4.3178034 0.51103735 17
18.327513 -4.3054957 1.1389817 22
5.1229391 -1.5444245 -0.18652302 8
5.9668074 -1.7246618 -0.19113177 5
6.7519403 -1.8927189 -0.12951159 9
7.4948754 -2.052063 -0.004514575 10
9.9258194 -2.5716391 0.01901561 10
15.323985 -3.7253933 0.050416291 11
18.289551 -4.3615055 0.51320541 29
18.235641 -4.353168 1.1379849 24
5.1244745 -1.5605876 -0.18757468 7
5.9629478 -1.7427402 -0.19103914 4
6.7474861 -1.913542 -0.12940514 9
7.4947066 -2.076539 -0.005006969 10
9.9141045 -2.602493 0.019616246 9
15.288683 -3.7708375 0.052001834 10
18.349667 -4.4385509 0.5121417 21
18.207827 -4.4109964 1.1380436 16
5.1211925 -1.5757265 -0.18749863 5
6.0596786 -1.7829434 -0.21103877 8
6.7477827 -1.9354119 -0.13008714 9
7.489603 -2.0999639 -0.0048901439 11
9.9120131 -2.6354294 0.019336581 10
15.238612 -3.8128438 0.0543769 12
18.560781 -4.5494885 0.50823736 15
14.201466 -3.5890672 1.0702057 14
5.1178579 -1.5908537 -0.18742448 7
6.0651946 -1.8034852 -0.21286196 8
6.7431812 -1.9562174 -0.12998557 9
7.484417 -2.1233737 -0.0047762394 9
9.9049435 -2.6672895 0.019491315 9
15.217658 -3.8610926 0.055152118 11
18.503063 -4.6017089 0.50935996 21
14.18612 -3.6349094 1.0703485 18
5.1144695 -1.6059716 -0.18735212 7
6.0612693 -1.820981 -0.21277839 9
6.7435579 -1.9770627 -0.13067716 9
7.4794154 -2.1455932 -0.00467062 8
9.8981247 -2.6975312 0.019634664 9
15.216589 -3.911155 0.054847598 11
18.343544 -4.6271486 0.51237679 19
14.19065 -3.6827879 1.0708085 16
5.1112022 -1.6203225 -0.18728513 7
6.038156 -1.8340563 -0.20887107 8
6.7390494 -1.9968171 -0.13058525 7
7.474339 -2.1677959 -0.0045676231 8
18.305813 -4.6797495 0.51310122 19
14.146308 -3.7194376 1.0704284 12
5.1077118 -1.635415 -0.18721634 6
6.0384798 -1.8544142 -0.20973998 8
6.7339907 -2.0186303 -0.13048637 12
7.4686432 -2.1923227 -0.0044566393 8
14.498275 -3.8483732 0.093227029 81
14.062119 -3.7485907 0.59260982 27
14.076443 -3.7547534 1.0696446 16
5.1041689 -1.6504951 -0.18714947 6
6.0341678 -1.8727397 -0.20965892 8
6.733901 -2.040535 -0.13118035 12
7.4679627 -2.2168033 -0.0049655437 9
7.816915 -2.3014998 0.20611238 17
14.51608 -3.9031963 0.09184587 24
14.01222 -3.7856765 0.59354103 31
14.031365 -3.7931118 1.0692613 15
5.1053071 -1.666708 -0.18821341 7
6.0297918 -1.8910474 -0.20958 8
6.7289314 -2.0612938 -0.13109124 11
7.462369 -2.2401369 -0.0048656464 8
7.7916532 -2.3213787 0.20796812 16
13.873757 -3.7981226 0.12650448 5
14.015663 -3.8354378 0.59346426 25
13.903598 -3.8111188 1.0674473 8
5.101655 -1.6817795 -0.18815011 17
6.025352 -1.9093424 -0.20950347 8
6.7286868 -2.0832078 -0.13178998 11
7.461513 -2.2646317 -0.0053798556 7
7.7615004 -2.3399155 0.21025783 15
13.843215 -3.8390222 0.12775344 37
14.227637 -3.9367018 0.58947158 11
13.902065 -3.8594105 1.0678039 9
5.09795 -1.69684 -0.1880886 11
6.0256114 -1.9288026 -0.21038514 7
6.7235689 -2.1039486 -0.13170582 9
7.4557524 -2.2879429 -0.0052855611 8
7.7409706 -2.3606701 0.21166885 17
13.802852 -3.8773389 0.12952614 28
18.493435 -5.0537271 0.50950468 23
13.890655 -3.9053013 1.0679873 4
5.0941925 -1.7118875 -0.18802899 10
6.0210395 -1.947083 -0.2103129 9
6.7231669 -2.1258798 -0.13240951 11
7.454721 -2.3124514 -0.0058053136 8
7.7348642 -2.3849792 0.21176398 20
18.521463 -5.1266375 0.50892788 23
5.0903835 -1.7269176 -0.18797129 8
6.0211592 -1.9665666 -0.21119899 9
6.7226834 -2.1478291 -0.13311553 11
7.4536014 -2.336966 -0.0063278079 9
7.7286725 -2.4092672 0.21185613 16
15.056386 -4.2966909 0.059976518 12
18.655706 -5.2272253 0.50634807 21
5.0865211 -1.7419389 -0.18791538 8
6.0164561 -1.984828 -0.21113116 10
6.7221189 -2.1697922 -0.13382411 11
7.4523911 -2.3615003 -0.0068531036 9
7.7223973 -2.4335299 0.21194524 17
15.033825 -4.3439717 0.060688376 11
18.736259 -5.3148994 0.50476217 16
14.223056 -4.138855 1.0748943 11
5.0826063 -1.7569441 -0.18786126 7
6.0116897 -2.0030761 -0.21106571 9
6.7166996 -2.1905069 -0.13374996 10
7.4510913 -2.3860435 -0.007381022 8
7.7208524 -2.4590487 0.21159416 18
15.011109 -4.3911333 0.061393797 13
18.714935 -5.3763037 0.50507414 7
5.0786395 -1.7719377 -0.18780905 7
6.0068593 -2.0213044 -0.21100241 8
6.7159777 -2.2124794 -0.13446337 8
7.4496999 -2.4106014 -0.0079117417 7
7.7240252 -2.4858651 0.21080291 16
14.978592 -4.4355917 0.06262219 14
20.01623 -5.7931423 0.48056182 24
5.0746198 -1.7869176 -0.18775862 7
6.001965 -2.0395186 -0.21094137 8
6.7104096 -2.2331719 -0.13439429 10
7.4434299 -2.4338694 -0.0078343153 8
7.7270937 -2.5127289 0.21000892 17
14.936306 -4.4772453 0.064372838 12
5.0705485 -1.801881 -0.18771011 7
5.9922752 -2.0564117 -0.2099269 8
6.7047687 -2.2538481 -0.13432771 9
7.441865 -2.4584312 -0.0083705783 10
7.7396646 -2.5422814 0.20833784 14
14.893899 -4.5186596 0.066116929 10
20.018213 -5.9380102 0.48027167 16
20.094423 -5.9641542 1.1791388 32
5.0711179 -1.8181393 -0.18879169 6
5.9875116 -2.0736647 -0.20987314 7
6.7040997 -2.2747979 -0.13505179 9
7.4357533 -2.4805069 -0.0083024502 10
7.7524529 -2.5707297 0.20666057 11
14.856872 -4.5587139 0.067582428 10
20.058254 -6.0179634 0.47938153 19
20.095827 -6.0336695 1.179671 32
5.0671477 -1.832343 -0.18874902 5
5.9826908 -2.0909019 -0.20982152 7
6.6986055 -2.2944174 -0.1349932 10
7.4343433 -2.5039155 -0.0088476539 10
14.838952 -4.6039996 0.067984343 12
20.054684 -6.0859804 0.47929823 18
20.072937 -6.0964317 1.1797744 28
5.0676017 -1.8486184 -0.18983406 5
5.9725761 -2.1085901 -0.20881122 7
6.6972051 -2.3174388 -0.13571578 9
7.4274168 -2.528286 -0.0087781549 8
9.7112799 -3.1851518 0.026762664 11
14.824281 -4.6554861 0.068129957 11
20.039335 -6.1579924 0.47940674 15
5.0726724 -1.8662678 -0.19204909 10
5.9532375 -2.122582 -0.20589501 13
6.6912699 -2.338068 -0.13565928 8
7.4255013 -2.5528598 -0.0093255043 10
9.692728 -3.213522 0.027721226 12
14.805334 -4.703083 0.068526685 12
19.343109 -6.0281763 0.49231613 14
5.0683241 -1.8812258 -0.19200951 16
5.9385705 -2.1378443 -0.20393664 8
6.690002 -2.3600655 -0.13639003 10
7.4234972 -2.5774429 -0.0098755956 10
9.6740866 -3.2418027 0.028675675 13
14.786232 -4.7505922 0.068917394 11
19.300152 -6.0859022 0.49293375 25
5.0592556 -1.8947778 -0.19084376 10
5.9191585 -2.1516228 -0.20102531 7
6.6839185 -2.3806691 -0.13633859 10
7.4214029 -2.6020279 -0.010428548 10
9.6744471 -3.2756755 0.027878702 13
14.752613 -4.7937403 0.070094407 11
19.271389 -6.1476698 0.49327242 16
18.66675 -5.9723167 1.1570594 15
5.0548072 -1.9096886 -0.19080788 10
5.9044099 -2.1667013 -0.19907194 7
6.6824923 -2.4026732 -0.13707423 7
7.4192176 -2.6266301 -0.010984421 10
9.6603765 -3.3052607 0.028388441 14
14.714082 -4.8352575 0.07152915 10
19.189783 -6.1933975 0.4945946 11
18.638369 -6.0319233 1.1570349 14
5.0456486 -1.9231628 -0.18964607 10
5.9037032 -2.1859894 -0.19998688 6
6.6762609 -2.4232481 -0.13702792 9
7.4169412 -2.6512363 -0.011543036 9
9.6509714 -3.3362408 0.028457463 11
14.680212 -4.8780079 0.072693527 11
16.947548 -5.5767784 0.5366385 2
18.523758 -6.0650253 1.1554785 19
5.0411015 -1.9380263 -0.189614 11
5.89851 -2.202949 -0.1999504 6
6.6749926 -2.4442329 -0.13777071 10
7.4149308 -2.6746969 -0.012106776 9
9.6419363 -3.3656375 0.028519452 11
14.646958 -4.9181662 0.0738464 12
16.945353 -5.6348467 0.53648007 36
16.982441 -5.651351 1.1285839 42
5.0367341 -1.9521302 -0.18958539 9
5.8979454 -2.2213562 -0.20087129 7
6.6689367 -2.4637537 -0.13773131 11
7.4128394 -2.6981633 -0.01267308 9
9.632803 -3.3950071 0.028577983 11
14.627888 -4.9626217 0.074201405 12
16.92387 -5.6869602 0.53667557 44
16.965647 -5.7051554 1.1286891 33
5.0320873 -1.9669604 -0.1895569 8
5.8967533 -2.2415578 -0.20179087 7
6.6668758 -2.4867985 -0.13847506 9
7.4099321 -2.7239552 -0.013237894 8
9.6225967 -3.427429 0.028638542 10
14.607142 -5.0118322 0.074559569 13
16.938549 -5.7567339 0.53615463 5
18.371403 -6.2174559 1.1541395 15
5.0273881 -1.9817765 -0.18953043 9
5.8910913 -2.2593851 -0.20175916 7
6.6603513 -2.5073178 -0.13843876 7
7.4072962 -2.7485938 -0.013807654 7
9.6127663 -3.4582722 0.028692305 10
14.586996 -5.0585384 0.074907124 11
18.843296 -6.4312305 0.49989632 29
18.33746 -6.2743406 1.15399 17
5.0226364 -1.996576 -0.18950576 9
5.8900361 -2.2787061 -0.20268482 6
6.6537552 -2.5278139 -0.13840508 9
7.4045687 -2.7732425 -0.014380217 8
9.6028261 -3.4890847 0.028742135 7
14.566697 -5.1051435 0.075248361 12
18.946512 -6.5344906 0.49765787 8
18.33186 -6.3403387 1.1543415 25
5.0224638 -2.0128713 -0.19061059 9
5.8795805 -2.2949848 -0.20170242 8
6.6517801 -2.549829 -0.13915837 8
7.3970351 -2.7963471 -0.014345407 7
9.5927792 -3.5198624 0.028788149 7
14.546236 -5.1516762 0.075583577 12
18.593369 -6.4884787 0.50404662 17
18.26428 -6.3860331 1.1535826 16
5.0176039 -2.0276532 -0.19058961 8
5.8690743 -2.3112054 -0.20072216 17
6.6450348 -2.5702977 -0.13912988 8
7.3941298 -2.8209925 -0.014923751 7
9.5826273 -3.5505967 0.02883029 8
14.520882 -5.1965427 0.076176584 11
18.501633 -6.5269632 0.5054791 15
18.277233 -6.45819 1.154258 17
5.017313 -2.0439608 -0.19169837 6
5.8585153 -2.3273783 -0.1997444 12
6.6429005 -2.5923109 -0.13988817 7
7.3864288 -2.844064 -0.014894724 9
9.5723658 -3.5813036 0.028868496 9
14.500115 -5.2428751 0.076499701 10
18.214092 -6.504961 1.153568 17
5.0123448 -2.0587246 -0.19168109 5
5.8525543 -2.3450718 -0.1997239 13
6.6360073 -2.6127489 -0.13986474 7
7.3786497 -2.8671014 -0.014868617 8
9.5619993 -3.6119711 0.028902888 10
14.474465 -5.2875156 0.077080607 11
19.221828 -6.9102306 0.49115208 16
18.240738 -6.5820312 1.1544828 14
5.0119338 -2.0750499 -0.19279331 10
5.8418884 -2.3611546 -0.19875056 13
6.6337152 -2.6347599 -0.14062816 9
7.3707881 -2.8901184 -0.014845431 8
9.546814 -3.6409853 0.02936995 10
14.448671 -5.3320265 0.077655256 12
19.124146 -6.9485331 0.49265236 19
18.224527 -6.6446753 1.1546264 19
5.0068583 -2.0897925 -0.19277972 13
5.8358092 -2.3787923 -0.19873446 10
6.6313386 -2.6567848 -0.1413942 9
7.3628473 -2.9131048 -0.014825106 7
9.5362387 -3.6715674 0.029396594 10
14.427451 -5.3780565 0.077959955 12
18.255295 -6.7237597 1.1556113 14
5.0017304 -2.1045191 -0.19276804 12
5.8343015 -2.3980286 -0.19967586 6
6.6288805 -2.6788175 -0.1421628 9
7.3595071 -2.9377117 -0.015417993 7
9.5208569 -3.7004545 0.029855788 10
14.401362 -5.4223452 0.078522563 11
18.527903 -6.8820391 0.50326324 23
18.167864 -6.7615309 1.1544653 15
4.996552 -2.119226 -0.19275826 10
5.8284054 -2.4147596 -0.19966477 9
6.6267023 -2.6998351 -0.1429345 6
7.3518071 -2.9595113 -0.015404165 8
9.5059223 -3.7277491 0.030310214 10
14.38068 -5.4658089 0.078813851 11
18.488214 -6.9341736 0.50365752 22
18.152096 -6.8209333 1.1545839 22
4.9915853 -2.1331811 -0.19275051 9
5.827075 -2.4331234 -0.2006107 13
6.6244478 -2.7208602 -0.14370847 7
7.3440347 -2.9812887 -0.015392959 8
9.4909019 -3.7549827 0.030761302 10
14.289387 -5.4838333 0.083057284 10
18.443668 -6.9844303 0.50413465 18
4.9863057 -2.1478543 -0.19274443 10
5.8204269 -2.4515877 -0.20060307 14
6.6213799 -2.743933 -0.14448422 8
7.3400254 -3.0070183 -0.015993834 7
9.4793777 -3.7868829 0.030773282 10
14.163571 -5.4940548 0.089143157 10
18.542368 -7.0936279 0.50182223 8
13.665009 -5.3226357 1.0742631 18
4.9809752 -2.1625087 -0.19274002 8
5.8140321 -2.4691496 -0.20059818 13
6.6139593 -2.7642918 -0.14447874 8
7.331676 -3.0298994 -0.015987933 6
9.4589424 -3.8137937 0.031653583 10
13.996539 -5.4855938 0.097596407 15
13.629733 -5.3607769 1.0739325 26
4.9755945 -2.1771431 -0.19273764 8
5.8029742 -2.4849834 -0.19964045 9
6.6064663 -2.7846267 -0.14447582 8
7.3279009 -3.0544732 -0.016595125 9
9.4477654 -3.844064 0.031657159 9
13.951416 -5.5212593 0.099184036 12
13.741047 -5.4482107 0.59299552 15
13.631827 -5.4126902 1.074276 17
4.9701624 -2.1917603 -0.19273692 9
5.796464 -2.5024824 -0.19963998 12
6.5989032 -2.8049326 -0.14447552 8
7.319386 -3.0773118 -0.016595066 9
9.4318171 -3.8725448 0.032093406 8
13.859463 -5.539113 0.10340422 16
13.705398 -5.4864407 0.59335315 34
4.9601231 -2.2046337 -0.19161063 9
5.7902212 -2.5190873 -0.19964153 12
6.5916533 -2.8241987 -0.14447761 9
7.3158655 -3.1007349 -0.017207801 8
9.4163465 -3.8994508 0.032525957 9
13.782416 -5.5594215 0.10682744 28
13.689193 -5.5293226 0.59334636 26
17.313845 -6.9127216 1.141808 23
4.9548726 -2.2184696 -0.19161361 9
5.7793398 -2.53392 -0.19869012 12
6.5843377 -2.8434441 -0.14448202 8
7.3076248 -3.1223927 -0.017213106 7
9.4007959 -3.9262867 0.032954991 9
13.724024 -5.5864325 0.10919034 22
13.691515 -5.5793161 0.59297496 13
17.222868 -6.9407291 1.1405175 16
4.949296 -2.2330141 -0.1916185 10
5.7723231 -2.552206 -0.19869643 12
6.576179 -2.8646858 -0.14448971 8
7.3030634 -3.1480832 -0.017832279 10
9.3839998 -3.9560583 0.033379436 9
13.719724 -5.6392508 0.10837996 20
17.516481 -7.1240892 1.1462682 8
4.9436703 -2.2475357 -0.19162518 7
5.7610049 -2.5678184 -0.19774979 11
6.572938 -2.8866806 -0.14528394 8
7.2942224 -3.1708348 -0.017843723 10
9.3630466 -3.9824429 0.034236908 8
13.730046 -5.6953001 0.1067729 9
17.146687 -7.0395155 0.52555829 20
17.205103 -7.069397 1.1409696 11
4.9379926 -2.2620413 -0.19163388 8
5.7499795 -2.5825088 -0.1968047 6
6.5654168 -2.9058604 -0.14529574 9
7.2903681 -3.1942344 -0.018467486 9
9.3426037 -4.0072274 0.035091519 7
13.754961 -5.7547274 0.10437006 8
16.948675 -7.0238972 0.52893591 12
16.74205 -6.9490423 1.1328644 11
4.9325514 -2.2758029 -0.19164377 11
5.7389112 -2.5971446 -0.19586164 14
6.5624204 -2.9268432 -0.14609414 10
7.2864285 -3.2176418 -0.01909399 6
9.322094 -4.0319114 0.035942912 7
13.751796 -5.8032751 0.10354501 9
16.788086 -7.0218735 0.53158909 5
16.860216 -7.0577269 1.1353691 9
4.926775 -2.2902694 -0.19165605 11
5.727109 -2.6134541 -0.19492215 14
6.558538 -2.9498425 -0.14689684 9
7.2814913 -3.2433202 -0.019725382 8
9.3003159 -4.0594683 0.036787868 7
13.704954 -5.8395729 0.10508502 16
16.537374 -6.9888401 0.53593838 23
16.697441 -7.0605326 1.1327668 12
4.9164348 -2.3028851 -0.1905424 11
5.7201495 -2.6306906 -0.1949392 13
6.5549736 -2.9718409 -0.14770144 9
7.2769175 -3.2678616 -0.020358622 8
9.2790537 -4.0854344 0.03763026 8
13.672805 -5.8790064 0.10582978 8
16.385443 -6.990984 0.53839707 12
16.212006 -6.9272079 1.1242194 17
4.9102697 -2.3180132 -0.19055921 12
5.7082386 -2.6468992 -0.19400448 12
6.5463457 -2.9929707 -0.14772546 8
7.2671928 -3.2916522 -0.02038604 9
9.2524977 -4.1108775 0.038903832 10
16.29266 -7.0196133 0.53967762 7
16.110199 -6.9514303 1.1227086 17
4.9043465 -2.3324022 -0.19057709 11
5.7011633 -2.664067 -0.19402605 12
6.5426173 -3.0149589 -0.14853549 8
7.2624373 -3.3161755 -0.02102536 9
9.2310848 -4.1366062 0.039738595 10
14.040621 -6.1397791 0.082488656 7
16.251774 -7.0660772 0.53996551 6
15.755725 -6.8665791 1.1165284 20
4.893878 -2.3448915 -0.18946916 8
5.694386 -2.6803558 -0.1940487 7
6.5392275 -3.0359418 -0.14934653 7
7.2580605 -3.3395669 -0.02166605 9
9.2102118 -4.1607575 0.040571809 12
13.999246 -6.1740589 0.083745182 9
16.110489 -7.0670462 0.54222977 12
15.605877 -6.8620501 1.1140807 12
4.8881626 -2.3585072 -0.18948966 8
5.6875558 -2.6966202 -0.19407326 13
6.5312114 -3.055011 -0.14937562 8
7.2536006 -3.3629625 -0.022309482 9
9.1846857 -4.182869 0.041838408 10
13.943997 -6.20228 0.085788429 11
15.941746 -7.0554485 0.54502851 11
15.672519 -6.9483776 1.1156133 9
4.8776164 -2.3709097 -0.18838531 9
5.6799417 -2.7145741 -0.19410282 13
6.5268211 -3.0779903 -0.15019482 8
7.2435298 -3.3866639 -0.02234906 9
9.1624308 -4.2097387 0.042659819 11
13.840846 -6.2151318 0.09045893 17
15.30919 -6.8572598 1.1092466 22
4.8715086 -2.3851843 -0.18841058 7
5.6681232 -2.7297025 -0.19317812 13
6.5182347 -3.0980189 -0.15023077 7
7.2384133 -3.4111693 -0.023000181 7
9.1453009 -4.2369962 0.043043315 10
13.688333 -6.2032728 0.098032475 13
15.367635 -6.935689 0.55518961 13
15.26438 -6.8981047 1.1087285 10
4.8608828 -2.3974957 -0.1873098 7
5.6607585 -2.7467318 -0.19321066 14
6.5141087 -3.119983 -0.15105385 9
7.2286577 -3.433687 -0.023043871 8
9.1235142 -4.2621975 0.04385972 10
13.590985 -6.2143621 0.1024332 13
15.574588 -7.0866232 0.55058545 7
4.8591452 -2.4136658 -0.18846649 5
5.6533356 -2.7637339 -0.19324547 14
6.5053749 -3.139967 -0.15109503 9
7.2188206 -3.4561758 -0.023090482 9
9.1062145 -4.2892909 0.044235706 9
13.507423 -6.2308817 0.10603684 12
15.295757 -7.0253592 0.55552173 5
15.165275 -6.975071 1.107504 11
4.8707099 -2.4357502 -0.19300908 4
5.6462293 -2.7798617 -0.19328052 14
6.5015316 -3.1609194 -0.15192115 9
7.2139397 -3.4795198 -0.023747981 9
9.084918 -4.3128386 0.045048177 10
13.479646 -6.2689972 0.10647106 12
15.192218 -7.0369425 0.55703604 7
15.185213 -7.0411358 1.1081579 6
4.8913879 -2.4611881 -0.19980794 11
5.6390681 -2.7959678 -0.19331771 14
6.4931011 -3.179863 -0.15196508 9
7.2044458 -3.5008333 -0.023797691 8
9.0681028 -4.3383245 0.045420408 10
13.451753 -6.3069954 0.1069001 12
14.883513 -6.9558201 0.56260318 25
14.767071 -6.9107637 1.1006838 19
4.8894095 -2.4775038 -0.20097083 15
5.6310925 -2.8137395 -0.1933611 15
6.4882135 -3.2027943 -0.15280092 9
7.1983914 -3.5263984 -0.024466217 8
9.0453644 -4.3645744 0.046218932 10
13.417204 -6.3472204 0.1075772 14
14.714485 -6.9415045 0.56536031 23
14.81675 -6.995142 1.1019073 8
4.8430128 -2.473691 -0.19085509 14
5.623435 -2.8306396 -0.19340461 12
6.4791927 -3.2226846 -0.15285242 9
7.1972647 -3.5528941 -0.025745749 9
9.0277357 -4.3913326 0.046580255 12
13.378992 -6.3829985 0.10851812 15
14.619598 -6.9568863 0.56667566 22
4.832119 -2.4858127 -0.18976516 10
5.6157193 -2.847513 -0.19345039 11
6.4745889 -3.2446065 -0.15369123 9
7.1915216 -3.5773427 -0.026417732 10
9.0100193 -4.4180174 0.046938002 11
13.340687 -6.4185772 0.1094538 14
14.611022 -7.0114841 0.56627035 7
4.8123474 -2.493794 -0.18642074 11
5.607945 -2.864357 -0.19349843 7
6.4654226 -3.2644489 -0.1537481 10
7.1901865 -3.6038797 -0.027703464 10
8.992218 -4.4446211 0.047292054 10
13.333978 -6.4686985 0.10853356 12
14.597695 -7.0639944 0.56594878 4
14.155614 -6.8653488 1.0904373 14
4.7925682 -2.5016603 -0.18307811 12
5.5956645 -2.8790989 -0.19259304 4
6.46066 -3.2863514 -0.15459228 9
7.1842504 -3.6283379 -0.028381526 10
8.9743309 -4.4711504 0.047642469 9
