# .PCD v0.7 - Point Cloud Data file format
VERSION 0.7
FIELDS x y z intensity
SIZE 4 4 4 4
TYPE F F F F
COUNT 1 1 1 1
WIDTH 1314
HEIGHT 1
VIEWPOINT 0 0 0 1 0 0 0
POINTS 1314
DATA ascii
0.70133477 -5.2204008 -0.15674585 13
0.67539614 -6.8014841 -0.28034025 10
0.6464268 -8.2517586 -0.27057129 7
0.60142672 -10.487034 -0.24844807 13
0.52568138 -14.192523 -0.18631619 7
0.62377882 -7.6262789 0.55514979 4
0.28349572 -24.568277 0.69793707 124
0.21688545 -23.397486 1.4987751 117
0.7004258 -4.5766912 -0.16288322 10
0.68537909 -5.2152071 -0.15619791 13
0.65393764 -6.7961426 -0.28014058 12
0.61983234 -8.2512264 -0.27143282 7
0.56721866 -10.476397 -0.24846083 13
0.47865915 -14.176589 -0.18671364 8
0.59933209 -7.6257629 0.55435753 3
0.2002846 -24.551493 0.69532001 123
0.1373803 -23.395561 1.4961956 122
0.68664771 -4.5763817 -0.1633299 6
0.66937274 -5.2148418 -0.15671694 12
0.63260835 -6.7858086 -0.2790429 11
0.59324008 -8.2506008 -0.27229542 7
0.53297257 -10.470608 -0.24902397 12
0.43174359 -14.160491 -0.18710953 8
0.23168904 -21.369251 -0.011938632 6
0.11665881 -24.554411 0.69257951 74
0.057883501 -23.393358 1.4936131 144
0.6728704 -4.5760241 -0.16377717 10
0.65336835 -5.2144213 -0.15723658 12
0.61123937 -6.7803183 -0.27884215 11
0.56676906 -8.2449369 -0.27243394 8
0.49888986 -10.459732 -0.24903542 12
0.3849366 -14.144233 -0.18750411 8
0.15946651 -21.362228 -0.014083683 9
0.067724466 -23.397579 0.69713879 47
-0.021603882 -23.390879 1.4910276 61
0.65909469 -4.5756183 -0.16422504 10
0.63736528 -5.2139444 -0.15775687 12
0.58977884 -6.7796717 -0.27954 11
0.54019928 -8.2441263 -0.27329797 8
0.46473733 -10.453707 -0.24959832 12
0.3382405 -14.127811 -0.18789691 8
0.087445974 -21.34996 -0.016023874 11
-0.10108286 -23.388123 1.488439 129
0.64544797 -4.570323 -0.16343254 11
0.62136412 -5.2134113 -0.15827775 10
0.56846535 -6.7740335 -0.27933913 11
0.51378548 -8.2382784 -0.27343684 9
0.43062231 -10.447563 -0.25016147 13
0.29165232 -14.111231 -0.18828827 8
0.014798164 -21.35741 -0.018793106 14
-0.093232274 -23.447195 0.69160581 23
-0.18055069 -23.385086 1.4858474 127
0.63169253 -4.5698214 -0.16388077 11
0.60551798 -5.2079411 -0.15772939 8
0.54718947 -6.768321 -0.27913803 11
0.48740873 -8.2323399 -0.27357572 9
0.39654753 -10.441301 -0.25072485 14
0.24517488 -14.094487 -0.18867797 8
-0.056551874 -21.329664 -0.02011317 13
-0.18277133 -23.688892 0.68738168 17
-0.26000738 -23.381775 1.4832528 91
0.61809981 -4.5644312 -0.16308767 10
0.5903368 -5.2073307 -0.15822482 11
0.52684206 -6.7674961 -0.27980226 12
0.46239653 -8.2263651 -0.27367121 9
0.36422125 -10.434994 -0.25123245 14
0.20115519 -14.077686 -0.18898922 9
-0.12474507 -21.316801 -0.021937311 16
-0.25660717 -23.625715 0.6852892 33
-0.33548164 -23.37837 1.4807853 25
0.60505164 -4.5638657 -0.16351408 10
0.57534325 -5.2017889 -0.15764987 10
0.50669181 -6.7616882 -0.27956599 12
0.43721712 -8.2252522 -0.27449411 9
0.33193424 -10.42858 -0.25174004 14
0.15723956 -14.060743 -0.18929905 9
-0.19263047 -21.298727 -0.023552716 13
-0.32886207 -23.537333 0.68337834 33
-0.41094112 -23.374716 1.4783151 29
0.5915125 -4.5583839 -0.16272014 10
0.55858696 -5.2010012 -0.15819806 10
0.48443955 -6.7557106 -0.27939957 10
0.40961316 -8.2189817 -0.2746765 9
0.2962665 -10.421891 -0.25235993 13
0.108751 -14.04342 -0.18976039 8
-0.26786101 -21.285053 -0.025612891 17
-0.42345333 -23.742931 0.67916512 27
-0.49433124 -23.370384 1.4755819 103
0.57779855 -4.5576949 -0.16316944 9
0.54285181 -5.1953144 -0.15764886 10
0.46329528 -6.7497091 -0.27919763 9
0.38337344 -8.2126827 -0.27481514 10
0.26235062 -10.415163 -0.25292355 13
0.062716842 -14.026051 -0.19014329 8
-0.33966386 -21.276293 -0.027765334 16
-0.49654269 -23.59889 0.67751253 42
-0.57373524 -23.365976 1.472976 57
0.563402 -4.5569191 -0.16364163 11
0.52691615 -5.1944523 -0.15817159 9
0.4426823 -6.7338114 -0.27719003 9
0.35717252 -8.2062922 -0.27495378 10
0.22847456 -10.408319 -0.25348753 14
0.016795158 -14.008523 -0.19052452 8
-0.41198087 -21.277254 -0.030340433 19
-0.58766162 -23.784063 0.6735124 28
-0.65343022 -23.366278 1.4705055 94
0.55062354 -4.5513363 -0.16282469 12
0.51203358 -5.1887054 -0.15759563 9
0.42455119 -6.6933546 -0.27062851 7
0.33260369 -8.194952 -0.27431887 11
0.19634479 -10.401458 -0.25399548 14
-0.026680529 -13.990978 -0.19082719 8
-0.48041725 -21.273197 -0.032589555 19
-0.64919627 -23.529955 0.67281675 51
-0.72884881 -23.36157 1.468024 21
0.53693455 -4.5505042 -0.16327482 13
0.49532592 -5.187685 -0.15814507 10
0.40374082 -6.6674423 -0.26683992 7
0.30518013 -8.188303 -0.27449971 10
0.16114521 -10.389316 -0.25405806 14
-0.074704647 -13.972996 -0.1912815 8
-0.74894357 -23.769136 0.66823423 36
-0.8125298 -23.361057 1.4654157 115
0.52324855 -4.5496244 -0.16372544 11
0.47970486 -5.1817818 -0.15759462 11
0.38505721 -6.6268053 -0.26029831 6
0.27942365 -8.1767073 -0.27390605 10
0.12741357 -10.38212 -0.25462145 14
-0.12028331 -13.954997 -0.19165748 8
-0.60210371 -20.874884 -0.020892024 8
-0.80791664 -23.444498 0.66798759 103
-0.89189887 -23.355539 1.4627976 45
0.5091778 -4.5438166 -0.16295272 11
0.46302271 -5.180644 -0.15814471 11
0.36908498 -6.5320606 -0.24382764 6
0.25210312 -8.1698656 -0.27408618 11
0.092356145 -10.369731 -0.2546826 13
-0.16841149 -13.941653 -0.19249457 8
-0.67486548 -20.849764 -0.022487283 7
-0.91411984 -23.752798 0.66281384 66
-0.97597051 -23.359413 1.4603179 120
0.49551511 -4.54284 -0.16340369 10
0.44746175 -5.1746302 -0.15759367 11
0.35714313 -6.403017 -0.2209627 16
0.22648132 -8.1580896 -0.27349013 11
0.058727682 -10.362299 -0.25524551 14
-0.21377337 -13.923334 -0.19286734 8
-0.74614882 -20.854534 -0.025244832 7
-0.9763937 -23.502533 0.66205388 94
-1.05375 -23.333395 1.4571509 34
0.48185661 -4.5418158 -0.16385514 10
0.43159851 -5.1734352 -0.15811801 11
0.34574458 -6.2788744 -0.19897538 19
0.20057607 -8.1511602 -0.27362567 11
0.025142193 -10.354751 -0.25580853 15
-0.25901902 -13.904865 -0.19323808 8
-0.81593978 -20.839136 -0.02715081 7
-1.0731409 -23.710676 0.65771532 99
-1.1355002 -23.356916 1.4553354 112
0.46854746 -4.5359144 -0.16305906 11
0.41574022 -5.1721849 -0.15864295 11
0.33520529 -6.154727 -0.17696041 10
0.17471182 -8.1441412 -0.27376109 10
-0.0080139041 -10.342132 -0.25581104 14
-0.30414987 -13.88624 -0.19360703 8
-0.88644719 -20.833452 -0.02948606 7
-1.1421895 -23.564634 0.65616864 86
-1.216141 -23.36521 1.4531074 96
0.4549129 -4.5347962 -0.16351086 13
0.39988607 -5.1708794 -0.15916836 12
0.3189964 -6.1139174 -0.17034131 10
0.14928424 -8.132103 -0.27316207 11
-0.041493833 -10.334352 -0.25637347 14
-0.34916103 -13.867462 -0.19397396 8
-0.9565146 -20.822544 -0.031608403 8
-1.232082 -23.672447 0.65257931 94
0.44166183 -4.5288038 -0.16271394 16
0.38403633 -5.1695175 -0.15969431 13
0.30587381 -6.0387592 -0.157359 10
0.12352133 -8.1249075 -0.27329618 12
-0.074509501 -10.321508 -0.25637418 14
-0.39405644 -13.848534 -0.1943391 8
-1.0269632 -20.816372 -0.033947587 7
-1.3129451 -23.670347 0.64986753 79
-1.3744111 -23.346098 1.4477007 106
0.42805237 -4.5275917 -0.16316599 13
0.36859924 -5.1632366 -0.15914261 11
0.29034224 -5.9978733 -0.15071917 10
0.09822911 -8.1126976 -0.27269489 13
-0.10744399 -10.308553 -0.25637382 14
-0.43838477 -13.824486 -0.19431192 8
-1.0973892 -20.809952 -0.036289036 7
-1.3896511 -23.623167 0.64752811 107
-1.5178919 -24.00028 1.4626985 70
0.41444716 -4.5263324 -0.16361862 16
0.35277686 -5.1617661 -0.15966898 7
0.275089 -5.9569473 -0.1440708 11
0.07256943 -8.1053286 -0.2728278 12
-0.14030033 -10.295485 -0.25637215 15
-0.48302472 -13.805254 -0.19467252 8
-1.1668501 -20.793339 -0.038199008 7
-1.4742196 -23.66033 0.64447522 92
-1.5370092 -23.370644 1.4434748 114
0.40084615 -4.5250254 -0.16407162 13
0.33695972 -5.1602402 -0.16019589 11
0.25830668 -5.935565 -0.14105201 12
0.047877014 -8.0880222 -0.27148777 12
-0.17354751 -10.287251 -0.25693244 15
-0.52754664 -13.785873 -0.19503099 8
-1.2391552 -20.806314 -0.041413724 7
-1.5401607 -23.508131 0.64304131 91
-1.6800191 -23.974085 1.4569945 70
0.38769692 -4.5188508 -0.16327363 7
0.32114738 -5.1586599 -0.16072327 14
0.24260503 -5.9043427 -0.13620895 12
0.021856964 -8.0854025 -0.27235585 12
-0.20625979 -10.273959 -0.25692898 14
-0.57194781 -13.76634 -0.1953873 9
-1.3085289 -20.789215 -0.043326616 7
-1.6344244 -23.639231 0.63915765 111
-1.6957734 -23.354267 1.4381734 117
0.37412223 -4.5174508 -0.16372687 6
0.30581629 -5.1521654 -0.16017073 14
0.22614175 -5.8828611 -0.1331811 12
-0.003159225 -8.0728521 -0.27174979 12
-0.23889071 -10.260557 -0.25692397 14
0.033814192 -7.3990536 0.54338741 11
-1.6976879 -23.471666 0.63788533 34
0.36103317 -4.5111866 -0.16292804 6
0.29003289 -5.1504755 -0.16069847 13
0.20982152 -5.861331 -0.1301493 14
-0.27196395 -10.251986 -0.25748295 5
0.0074551105 -7.4213095 0.54149997 40
0.019431412 -6.944706 1.2224951 4
0.34748515 -4.5096936 -0.16338164 6
0.27425516 -5.1487312 -0.16122669 12
0.19208366 -5.8544178 -0.12984878 14
0.060201287 -6.9099073 0.12372565 4
0.039069355 -6.927228 0.56246698 28
-0.0014824271 -6.93225 1.221153 3
0.0076903701 -6.8974476 1.0027647 36
0.33394274 -4.508153 -0.16383559 6
0.25848383 -5.1469316 -0.16175538 12
0.17438686 -5.8474436 -0.12954777 14
0.029244542 -6.9024467 0.34303802 27
0.022827864 -6.875061 0.56393284 30
0.012711287 -6.8797493 0.78281963 96
-0.0087949634 -6.8501816 1.0008715 5
0.32093695 -4.5017548 -0.16303569 6
0.24326205 -5.1402264 -0.16120166 12
0.15673184 -5.8404102 -0.12924606 15
0.018084407 -6.8899775 0.12395471 17
0.0085047483 -6.8899384 0.34309149 20
-0.00077575445 -6.8873339 0.56253695 104
-0.010941386 -6.8920221 0.78194648 14
-0.033033311 -6.8673544 1.000652 4
0.30742237 -4.5001216 -0.16348976 6
0.22752035 -5.138319 -0.16173071 11
0.13911802 -5.8333178 -0.1289438 15
0.01095283 -6.8450708 -0.09324044 9
-0.0025869608 -6.8774414 0.12435448 17
-0.011554122 -6.8724136 0.34354192 15
-0.022641003 -6.8846455 0.56180167 100
-0.029737532 -6.8645163 0.78144526 4
-0.060592771 -6.9092188 1.0010641 18
0.29391322 -4.4984417 -0.1639443 6
0.21236229 -5.1315098 -0.16117638 10
0.12154585 -5.8261662 -0.12864083 14
-0.010137916 -6.8374405 -0.093229592 4
-0.0243994 -6.8746977 0.12362021 15
-0.035215557 -6.8845005 0.34162053 21
-0.045125008 -6.8868361 0.56084365 96
-0.052805007 -6.8716698 0.78061616 5
-0.10279953 -7.0202675 1.224153 2
-0.080585897 -6.8915052 0.99994344 4
0.28041056 -4.4967141 -0.16439921 8
0.1972447 -5.124649 -0.16062123 9
0.10401648 -5.8189554 -0.12833726 15
-0.036733866 -6.8738956 -0.099891424 10
-0.046828568 -6.8768053 0.12231696 9
-0.056425571 -6.8767233 0.34128043 12
-0.067633688 -6.8889465 0.55988383 95
-0.075931847 -6.8787374 0.77978408 13
-0.12988847 -7.0519123 1.2254822 29
-0.10382992 -6.8984928 0.99945682 3
0.2669138 -4.4949398 -0.16485447 9
0.18216825 -5.1177387 -0.16006547 7
0.087150872 -5.8068094 -0.12711781 14
-0.05852437 -6.8710079 -0.10062671 11
-0.067995012 -6.8689814 0.12214994 9
-0.078244388 -6.8738165 0.34054402 11
-0.089504659 -6.8860245 0.55914557 82
-0.099117815 -6.8857203 0.77894908 10
-0.14403576 -6.9895334 1.221158 38
-0.12575203 -6.8954945 0.998716 11
0.25403798 -4.4883175 -0.16405302 8
0.16713268 -5.1107779 -0.15950906 9
0.069722533 -5.7994833 -0.12681228 14
-0.080955446 -6.8729458 -0.1021052 11
-0.089777291 -6.8660088 0.12141389 14
-0.10005325 -6.8708334 0.33980703 12
-0.11204451 -6.8879738 0.55818284 80
-0.12167406 -6.8876657 0.77816057 12
-0.1684162 -7.0012388 1.2212948 12
-0.14907855 -6.9023142 0.99822468 12
0.24057072 -4.4864511 -0.1645084 9
0.15213853 -5.1037674 -0.15895176 9
0.05233705 -5.792098 -0.12650615 14
-0.10341012 -6.8748016 -0.10358548 12
-0.11154962 -6.8629608 0.12067729 6
-0.12185067 -6.8677731 0.33906943 9
-0.13391107 -6.8848963 0.5574429 40
-0.14425415 -6.8895292 0.77737027 15
-0.18852168 -6.9832258 1.2196519 3
-0.17173821 -6.9041033 0.99760598 13
0.22711015 -4.4845381 -0.16496414 8
0.1365245 -5.1015415 -0.15948045 8
0.03432101 -5.789525 -0.12711632 15
-0.12520325 -6.8716812 -0.10432363 12
-0.13330978 -6.8598366 0.11994016 6
-0.14434296 -6.8695707 0.33793265 13
-0.15648174 -6.8866873 0.55647725 60
-0.16613591 -6.8863649 0.77662873 14
-0.19442147 -6.9058094 0.99698555 12
0.21432036 -4.4777846 -0.16416162 8
0.1209181 -5.0992622 -0.16000956 8
0.01700443 -5.7820225 -0.1268093 15
-0.1476866 -6.8733778 -0.10580671 12
-0.15577286 -6.8615522 0.11863106 21
-0.16613597 -6.8663568 0.33719337 13
-0.17834342 -6.8834543 0.55573553 51
-0.18800527 -6.8831224 0.77588671 14
-0.21560907 -6.8975534 0.99611688 19
0.20089024 -4.4757795 -0.16461748 7
0.10601532 -5.0920982 -0.15945119 9
-0.00097590685 -5.7793255 -0.12741977 15
-0.16947448 -6.8701029 -0.10654652 11
-0.17825884 -6.8631859 0.1173203 6
-0.18865764 -6.8679953 0.33605373 5
-0.20094335 -6.8850851 0.55476701 47
-0.20986414 -6.8798056 0.7751441 15
-0.23675078 -6.8892269 0.99524879 29
0.18816483 -4.4689398 -0.16381377 8
0.089731097 -5.0945396 -0.16106898 8
-0.018223107 -5.7717047 -0.12711209 15
-0.19198668 -6.8716383 -0.10803235 11
-0.2000199 -6.8598289 0.11658037 6
-0.21120226 -6.8695517 0.33491236 9
-0.22279912 -6.8816977 0.55402368 38
-0.23171109 -6.8764114 0.77440095 17
-0.30763018 -7.1569195 1.2277893 4
-0.257846 -6.8808289 0.99438131 6
0.17476571 -4.4668436 -0.16426975 8
0.073421478 -5.0969219 -0.16268831 5
-0.03542614 -5.7640257 -0.12680358 16
-0.21376806 -6.8682079 -0.10877383 12
-0.22329736 -6.8662109 0.11469364 9
-0.23454309 -6.8759508 0.33336824 17
-0.24542612 -6.8831654 0.55305237 38
-0.25354588 -6.872941 0.77365726 10
-0.32150972 -7.0990629 1.223788 6
-0.27727127 -6.8624945 0.99327147 14
0.16210461 -4.459918 -0.16346508 9
0.0570876 -5.0992451 -0.16430908 19
-0.052586138 -5.7562904 -0.12649447 13
-0.23553711 -6.8647013 -0.10951585 12
-0.24506909 -6.8626966 0.11395144 5
-0.25477469 -6.8625803 0.33342773 6
-0.26727545 -6.8796234 0.55230737 34
-0.276986 -6.879262 0.77280617 21
-0.31837702 -6.9427528 1.2139509 7
-0.30237973 -6.8786077 0.99301124 30
0.14948428 -4.452951 -0.1626597 9
0.040728271 -5.1015081 -0.16593128 14
-0.069701791 -5.748498 -0.12618446 11
-0.25729358 -6.8611183 -0.11025834 11
-0.26762676 -6.8640079 0.11263442 6
-0.2773515 -6.8638983 0.33228242 8
-0.28665864 -6.8612213 0.55224758 12
-0.30048287 -6.8854952 0.77195221 70
-0.34809554 -6.9832993 1.2158225 2
-0.32592189 -6.8847685 0.99250507 18
0.136141 -4.4507203 -0.16311544 9
0.025901675 -5.0940762 -0.16537374 13
-0.086773276 -5.7406483 -0.12587386 11
-0.27903771 -6.85746 -0.11100137 21
-0.29102063 -6.8701372 0.1107409 7
-0.30985546 -6.9241114 0.32630217 10
-0.33013821 -6.9855709 0.54554516 10
-0.32234871 -6.8817844 0.77120465 101
-0.41012871 -7.2056036 1.2284589 8
-0.3736732 -7.0287008 0.99534976 15
0.12358654 -4.4436684 -0.16230887 8
0.010322809 -5.0914097 -0.16590673 14
-0.10380024 -5.7327414 -0.12556237 12
-0.30487406 -6.8781013 -0.11548698 37
-0.37606311 -7.2385225 0.066261292 12
-0.41189253 -7.3869534 0.28723043 24
-0.42136085 -7.380373 0.52617562 7
-0.35022426 -6.9124746 0.77007014 2
-0.40224123 -7.0296087 1.2174981 4
-0.39604735 -7.0247593 0.99458313 80
0.11027575 -4.4413471 -0.16276473 9
-0.0044347048 -5.0838785 -0.16534811 14
-0.12160856 -5.7296238 -0.12617236 12
-0.41633153 -7.395586 -0.19637674 14
-0.42461276 -7.3812733 0.048189938 6
-0.40453374 -7.2060757 0.30096418 8
-0.36428559 -6.8642912 0.76981962 17
-0.4066335 -6.9273958 1.2109289 4
0.097787023 -4.4342113 -0.16195697 9
-0.019149542 -5.0762978 -0.16478866 10
-0.13856328 -5.7216024 -0.12585998 13
-0.42711282 -7.3183241 -0.18594271 3
-0.91258538 -9.9983425 -0.26168567 9
-0.40294456 -7.0645838 0.31150329 5
-0.37366796 -6.8460178 0.54926765 7
-0.38786674 -6.8701954 0.76895905 91
-0.41333079 -6.8692122 0.98950803 6
0.084509552 -4.4317999 -0.16241282 8
-0.033820987 -5.0686703 -0.16422838 13
-0.1563319 -5.7183628 -0.12647015 13
-0.37372875 -6.8858604 -0.1207298 25
-0.37984514 -6.8644505 0.10660189 4
-0.39412558 -6.8888674 0.3249107 12
-0.40442121 -6.8911495 0.54620636 11
-0.4115032 -6.8760118 0.76809555 70
0.072087407 -4.4245806 -0.16160399 10
-0.04844892 -5.0609932 -0.16366738 13
-0.17321354 -5.7102261 -0.12615687 14
-0.39200342 -6.8623438 -0.11847746 31
-0.45113671 -7.1290178 0.074075043 36
-0.42782795 -6.9484739 0.31888455 3
-0.43550336 -6.936142 0.54313278 3
-0.48160982 -6.9885807 0.99104428 12
0.058843732 -4.42208 -0.16205984 9
-0.063033342 -5.0532694 -0.16310555 12
-0.19094276 -5.7068672 -0.12676722 13
-0.50776923 -7.3052969 0.05189395 15
-0.46752834 -7.0372972 0.31040496 5
-0.46785045 -6.985898 0.53981429 4
-0.47691464 -6.9806538 0.76525533 12
-0.509637 -7.013689 0.99097502 28
0.046488643 -4.4147768 -0.16124982 9
-0.078469694 -5.0502939 -0.16363758 13
-0.20865965 -5.7034445 -0.12737793 14
-0.63476205 -7.9029646 -0.28238815 14
-0.51050925 -7.1934719 0.063827813 25
-0.48801351 -7.0231647 0.31044716 30
-0.49673915 -7.0158939 0.53741562 33
-0.50103819 -6.9861383 0.76437229 35
-0.52900982 -6.9945698 0.98985738 4
0.034176111 -4.407434 -0.16043895 9
-0.092983127 -5.0424719 -0.16307455 13
-0.22636485 -5.6999607 -0.12798899 14
-0.65919161 -7.8931112 -0.28251129 14
-0.48679578 -6.9501076 0.091434717 21
-0.51707447 -7.0529747 0.30682403 20
-0.52585256 -7.0457649 0.53500813 9
-0.51737118 -6.9523106 0.76396108 12
-0.59925079 -7.2251749 0.99461085 2
0.020992041 -4.4048018 -0.16089433 8
-0.10838163 -5.0393906 -0.16360658 14
-0.24311447 -5.6915932 -0.12767416 14
-0.67783105 -7.8540773 -0.27811533 9
-0.51079428 -6.955411 0.089511871 11
-0.58944726 -7.2976494 0.28523743 98
-0.54844618 -6.9919348 0.76265764 3
-0.62577701 -7.2103024 1.2239224 9
0.0087469816 -4.397377 -0.1600824 8
-0.12376869 -5.0362568 -0.16413897 13
-0.26077783 -5.6879883 -0.12828535 14
-0.61738241 -7.4224701 -0.21266514 12
-0.60283899 -7.2964764 0.047516584 11
-0.62368846 -7.3465834 0.27993637 20
-0.62499106 -7.3008118 0.52076507 5
-0.64474773 -7.3447351 0.75746995 2
-0.63842845 -7.1566753 1.2202713 2
-0.60089493 -7.0053377 0.98811752 22
-0.004401207 -4.3946562 -0.16053778 8
-0.14010757 -5.0378513 -0.16576868 14
-0.27745199 -5.6795082 -0.12796944 15
-0.63711858 -7.3981695 -0.21046919 16
-0.64214408 -7.3694496 0.037409365 4
-0.56708872 -6.9562378 0.31145376 76
-0.58383822 -6.9879608 0.53480279 31
-3.9675059 -22.984514 0.56122601 34
-0.61174285 -6.9224997 1.2060961 5
-0.60532033 -6.9175234 0.9854182 20
-0.017233551 -4.3870096 -0.15974724 8
-0.15625799 -5.0344429 -0.16632885 14
-0.29595387 -5.6755962 -0.12861121 15
-1.1881388 -9.8477259 -0.26081127 23
-0.59131563 -6.9561834 0.31023902 107
-0.60820067 -6.9878807 0.53375715 16
-0.58682501 -6.8408613 0.76203686 37
-0.63485467 -6.9175119 1.2052931 4
-0.61771512 -6.8637018 0.98348957 10
-0.030345738 -4.3841982 -0.16020256 8
-0.17162788 -5.0311413 -0.16686255 13
-0.31356108 -5.6718082 -0.12922281 16
-1.2202903 -9.8407841 -0.26192826 6
-0.61131084 -6.9416628 0.31029224 28
-0.60501981 -6.8659239 0.53866982 8
-0.61600018 -6.8703423 0.76084608 80
-0.64059818 -6.8637886 0.98284328 2
-0.042451739 -4.3766088 -0.15938807 8
-0.18698633 -5.0277863 -0.16739672 13
-0.33115494 -5.6679583 -0.12983465 15
-0.60492599 -6.8995142 -0.1373657 7
-0.606323 -6.8590012 0.09439522 4
-0.63540602 -6.9001436 0.53601217 11
-0.63997746 -6.8752909 0.75996125 21
-0.70430446 -7.0441866 0.98632008 17
-0.055527925 -4.3737092 -0.15984327 8
-0.20233297 -5.0243788 -0.16793102 15
-0.34873545 -5.6640472 -0.13044685 15
-0.62045109 -6.865674 -0.13358772 5
-0.63770378 -6.897789 0.088384748 8
-2.0415118 -13.162829 -0.21854395 4
-3.8591213 -21.184284 -0.16267973 11
-0.71553147 -6.9903736 0.98442906 34
-0.067564011 -4.3660393 -0.15902734 8
-0.21662152 -5.0161524 -0.16736561 11
-0.36630249 -5.6600742 -0.13105929 16
-0.84755719 -7.7821245 -0.27897209 27
-1.3350875 -9.9016552 -0.27521533 4
-0.69386613 -6.999795 0.30180734 5
-0.70581508 -7.0071268 0.52875841 28
-0.70932305 -6.9775028 0.7569654 17
-0.7423178 -7.0047092 0.98409355 16
-0.080602825 -4.3630519 -0.15948242 8
-0.23192632 -5.01264 -0.16789979 10
-0.38385415 -5.6560402 -0.13167202 15
-0.87577939 -7.790843 -0.28211647 15
-0.70132601 -6.9749269 0.076330841 22
-0.71945667 -7.0092278 0.29979211 22
-0.73372257 -7.0263033 0.52678418 26
-0.72810245 -6.957757 0.75638461 13
-0.81518614 -7.188838 1.2186153 2
-0.093631506 -4.3600197 -0.15993768 8
-0.24537742 -5.0044975 -0.1673066 11
-0.399423 -5.6473627 -0.13132298 15
-0.83082092 -7.4866791 -0.23592848 13
-0.71564114 -6.9409761 0.079107821 15
-0.76665461 -7.1158743 0.28954452 9
-0.83375466 -7.3567886 0.50949645 9
-0.74796093 -6.9479494 0.75571507 7
-0.84518576 -7.2176218 1.2198167 8
-0.86766124 -7.3346376 0.99021268 6
-0.10599858 -4.3570967 -0.16037041 7
-0.25878537 -4.996314 -0.16671234 12
-0.41605592 -5.6434221 -0.13190502 16
-0.83893359 -7.4187241 -0.22685796 10
-0.7433883 -6.9650049 0.07485944 14
-4.1163731 -21.02693 -0.16787225 5
-4.5882497 -22.854557 0.53953528 9
-0.85756671 -7.1735506 1.2168092 2
-4.6949077 -22.907522 1.3377105 3
-0.11791164 -4.3492661 -0.15955257 7
-0.2747823 -4.9924717 -0.16727275 12
-0.43329775 -5.6342211 -0.13161612 16
-0.8489604 -7.3502235 -0.21785551 8
-0.79315448 -7.0704784 0.06055373 2
-0.77229142 -6.9402981 0.30205363 66
-0.80311286 -7.0251522 0.52375507 22
-4.6945462 -22.936819 0.53528529 28
-0.81766546 -6.9109173 1.2011569 3
-0.82061625 -6.9447889 0.98014969 35
-0.13089168 -4.3461037 -0.16000789 7
-0.28887761 -4.9840126 -0.166704 12
-0.45075917 -5.6299534 -0.13222873 15
-0.90830374 -7.4934187 -0.24224144 16
-1.4703054 -9.7623158 -0.26847845 11
-0.79787433 -6.9494104 0.30003482 112
-0.81710219 -6.9857111 0.5246619 32
-0.79011333 -6.834836 0.75473535 8
-0.84330463 -6.9199705 1.2012212 5
-0.8219409 -6.8568792 0.97754896 14
-0.14273387 -4.3381939 -0.15918869 7
-0.3029263 -4.9755077 -0.1661343 11
-0.46820629 -5.6256256 -0.13284165 14
-0.8963021 -7.2956152 0.030174136 17
-0.82233906 -6.9535837 0.29842788 43
-0.82841611 -6.9365616 0.52606106 15
-0.81058025 -6.8245678 0.75404072 83
-0.84495008 -6.8562155 0.97688961 6
-0.15567535 -4.3349447 -0.15964377 7
-0.31808984 -4.9716949 -0.16666764 9
-0.48563838 -5.6212358 -0.13345474 13
-0.82152057 -6.9395018 -0.15789902 8
-0.90149188 -7.2174873 0.038181424 5
-0.82009125 -6.8513613 0.3059777 3
-0.83082056 -6.8535242 0.52916986 8
-0.84705567 -6.8772097 0.75246 38
-0.89181137 -6.9474058 0.97824579 2
-0.16860545 -4.3316507 -0.16009897 8
-0.3320626 -4.9630976 -0.16609651 14
-0.50305414 -5.616786 -0.13406813 13
-0.82420111 -6.8572025 -0.14648443 7
-0.85168159 -6.884407 0.30187684 3
-0.85380399 -6.8527737 0.52816045 2
-0.92661369 -6.9900007 0.9785223 32
-0.18034714 -4.3236217 -0.15927804 8
-0.34718192 -4.9591837 -0.16662949 14
-0.52045488 -5.6122751 -0.1346817 13
-0.84470177 -6.8467751 -0.14648819 11
-0.92343795 -7.030736 0.51812363 21
-0.91608691 -6.9626083 0.7495324 17
-0.9540025 -7.0034485 0.97815675 17
-0.19323754 -4.3202419 -0.159733 7
-0.36107826 -4.9504929 -0.16605705 13
-0.53784001 -5.6077032 -0.13529551 14
-1.0786971 -7.6589422 -0.27773505 15
-0.9201988 -7.0074186 0.059357047 18
-0.93587971 -7.0271578 0.28695607 20
-0.94068754 -7.0055113 0.51831198 24
-0.93050003 -6.9277601 0.74917072 6
-1.0328662 -7.1853275 1.2141751 4
-1.0271866 -7.1856756 0.98143917 2
-0.20490742 -4.3121357 -0.15891057 7
-0.37615383 -4.9464779 -0.16658992 13
-0.55520868 -5.6030703 -0.13590956 14
-1.0994384 -7.6380587 -0.27631086 18
-0.92210877 -6.9246769 0.068021894 14
-0.98132014 -7.107832 0.2786293 9
-1.0134257 -7.1876507 0.50796402 5
-0.95250893 -6.9218493 0.74839216 4
-1.0624132 -7.2031775 1.2147397 6
-0.21653259 -4.3039942 -0.15808731 7
-0.38997269 -4.9376945 -0.1660164 13
-0.57256126 -5.5983772 -0.13652372 10
-0.95309663 -6.952281 0.063104749 16
-1.0559927 -7.2537041 0.50346696 2
-5.3785615 -23.00738 0.50998104 22
-1.0314959 -7.0238419 0.9766174 16
-0.22811323 -4.2958164 -0.15726286 7
-0.40500391 -4.9335785 -0.16654903 14
-0.58989668 -5.5936241 -0.13713813 10
-1.1147227 -7.5007286 -0.2581566 7
-0.97516191 -6.9462147 0.062322557 5
-0.98306584 -6.9369001 0.29088408 34
-1.0153999 -7.0162439 0.51447022 7
-5.4499435 -22.961735 0.50757158 16
-1.0092446 -6.8397427 1.193103 2
-1.0335145 -6.9454288 0.97428513 31
-0.2409063 -4.2922697 -0.15771669 6
-0.41874385 -4.9247046 -0.16597372 11
-0.60721636 -5.588809 -0.13775277 9
-1.1687711 -7.6036482 -0.27661127 14
-1.0910548 -7.2798462 0.019471228 23
-1.0077548 -6.9403553 0.28926134 34
-1.016196 -6.9330568 0.51762897 37
-5.5278506 -22.939934 0.50480515 6
-1.0529581 -6.9104004 1.1967065 5
-1.0336353 -6.8622732 0.97186857 14
-0.25241363 -4.2840157 -0.15689093 7
-0.43243718 -4.9157867 -0.16539747 13
-0.62320912 -5.5792007 -0.13742852 10
-1.1930932 -7.5967865 -0.27747566 14
-1.1169373 -7.2828522 0.017460287 18
-1.0311383 -6.9389181 0.28805703 6
-1.0436578 -6.9460402 0.51585615 17
-1.0156701 -6.8108912 0.7465896 37
-1.0554237 -6.8560276 0.97109306 7
-0.26516485 -4.280385 -0.15734446 7
-0.44739163 -4.9115229 -0.16592938 13
-0.64047813 -5.5742702 -0.13804287 11
-1.2120264 -7.5708189 -0.27527386 13
-1.1062744 -7.156805 0.031476676 4
-1.027186 -6.8415775 0.29528505 2
-1.0367824 -6.8389082 0.52028126 3
-1.05114 -6.8527164 0.74508464 32
-1.1123389 -6.969636 0.97283721 9
-0.27790391 -4.2767091 -0.15779811 7
-0.46100605 -4.9025154 -0.16535181 11
-0.65772963 -5.5692797 -0.13865745 11
-1.0746617 -6.9984884 -0.18484312 4
-1.1111549 -7.0506506 0.27550966 29
-1.0710229 -6.8757572 0.51726991 6
-1.0813069 -6.8751736 0.74386436 3
-1.1444606 -6.9966612 0.97274774 22
-0.29062998 -4.2729893 -0.15825194 6
-0.47457242 -4.893465 -0.16477317 10
-0.67360425 -5.5595102 -0.13833123 12
-1.0845076 -6.9492569 -0.17872578 17
-1.1448624 -7.1196804 0.032827795 13
-1.1966022 -7.2592058 0.25568056 28
-1.1337698 -7.0082455 0.50926149 18
-1.131539 -6.9646053 0.74158961 32
-1.3532605 -7.5679379 1.4898571 27
-1.3626788 -7.6209106 1.2353253 7
-1.171036 -7.0043898 0.9722513 5
-0.30334318 -4.2692242 -0.15870583 7
-0.48809123 -4.8843718 -0.16419333 9
-0.69080412 -5.5544043 -0.13894552 15
-1.2456315 -7.4167862 -0.25634807 25
-1.1155252 -6.9367657 0.054051578 24
-1.1403745 -6.9848433 0.27856791 7
-1.1560481 -7.0015974 0.50846541 15
-1.1464894 -6.9340496 0.74117547 10
-1.3673213 -7.5272999 1.4858587 37
-1.3331022 -7.4567614 0.98095816 9
-0.31604254 -4.2654157 -0.15915984 8
-0.50293577 -4.8799143 -0.16472417 10
-0.70659459 -5.544528 -0.13861793 14
-1.2594509 -7.3765097 -0.25181204 21
-1.137535 -6.930131 0.05326432 10
-1.3159959 -7.4886608 0.23239952 19
-1.2187558 -7.1287165 0.50065523 2
-1.3973503 -7.538969 1.4867811 35
-1.3481243 -7.4009819 1.2219712 40
-0.32735872 -4.2569284 -0.15833068 8
-0.51637447 -4.8707314 -0.16414303 10
-0.72233415 -5.5346022 -0.13828939 13
-1.2787099 -7.3551426 -0.250346 10
-1.1652737 -6.9424248 0.050090253 8
-1.3544421 -7.5290031 0.22729546 33
-1.3802133 -7.5370378 0.72971964 37
-1.4259953 -7.5457621 1.4872525 36
-1.4090884 -7.5127831 1.2278544 38
-1.2541997 -7.0364723 0.97093523 25
-0.33862889 -4.2484064 -0.15750045 8
-0.53117073 -4.8661757 -0.16467339 12
-0.73802292 -5.5246277 -0.13795978 12
-1.2425793 -7.1159763 0.026604414 14
-1.1980606 -6.935957 0.27873784 65
-1.2596917 -7.1004353 0.49978396 101
-1.4058316 -7.5343246 0.72877681 37
-1.4516959 -7.5429487 1.4868295 35
-1.4271219 -7.4862137 1.2259156 9
-1.2494862 -6.9436531 0.96838123 18
-0.35125589 -4.2444744 -0.15795362 7
-0.5445286 -4.856905 -0.16409057 12
-0.75365973 -5.5146027 -0.13762909 10
-1.3751223 -7.5010796 -0.2782324 29
-1.3181734 -7.2795744 0.0042691231 51
-1.2274952 -6.952837 0.27581799 68
-1.2419344 -6.9647007 0.50578415 29
-1.4329598 -7.5362854 0.72775483 36
-1.4789283 -7.5447798 1.4868498 34
-1.241104 -6.841423 0.96565545 6
-0.36245012 -4.2358799 -0.15712172 7
-0.55783868 -4.8475943 -0.16350681 13
-0.76924539 -5.504528 -0.13729721 10
-1.4005582 -7.4982147 -0.27986497 22
-1.400883 -7.4616613 -0.020502985 40
-1.2459249 -6.9005623 0.50802314 6
-1.2427138 -6.857089 0.73793811 30
-1.5031176 -7.537034 1.4859791 35
-1.4796674 -7.4851904 1.2249941 38
-0.37503338 -4.2318649 -0.15757447 7
-0.57255387 -4.8428936 -0.16403633 12
-0.78625286 -5.4990892 -0.13790929 11
-1.4185531 -7.4717035 -0.27763957 14
-1.3705692 -7.2837162 0.00020444393 35
-1.2564502 -6.8913078 0.27850091 3
-1.290745 -6.9648352 0.50343227 9
-1.2721577 -6.8738747 0.73675966 15
-1.5335116 -7.5481253 1.4868829 35
-1.5114269 -7.5011311 1.2254646 38
-1.3545227 -7.041193 0.9683854 33
-0.38760257 -4.2278066 -0.15802729 6
-0.58578217 -4.8334942 -0.1634509 12
-0.80175209 -5.4889116 -0.13757604 14
-1.266222 -6.9135056 -0.18811911 4
-1.3074448 -6.9742641 0.26958776 3
-1.39009 -7.195075 0.48993054 14
-1.3281543 -6.9713106 0.73422235 11
-1.5577118 -7.5401888 1.4860096 35
-1.541749 -7.5121956 1.2256627 27
-1.3737888 -7.0243359 0.96738684 11
-0.40015745 -4.2237039 -0.15848017 8
-0.60044873 -4.8286953 -0.16397995 11
-0.81870413 -5.4833593 -0.13818771 14
-1.2683499 -6.8452244 -0.17886001 14
-1.303231 -6.9193001 0.04294759 26
-1.3543921 -7.0427332 0.2619366 15
-1.3677497 -7.0499754 0.49648851 21
-1.3377509 -6.9260387 0.73406374 10
-1.5598063 -7.5051079 0.97628343 17
-0.41269779 -4.2195578 -0.1589331 8
-0.61509824 -4.8238459 -0.16450912 8
-0.83563733 -5.4777479 -0.13879949 14
-1.3344998 -6.9402971 0.038549483 21
-1.4503999 -7.2575455 0.2409727 18
-1.5274129 -7.4546947 0.47346911 18
-1.6124578 -7.5429192 1.4860301 36
-1.5818119 -7.4724884 1.2225978 37
-1.5950727 -7.5301628 0.97606921 36
-0.42522335 -4.2153673 -0.15938604 8
-0.62973022 -4.8189459 -0.16503841 11
-0.85101306 -5.4674149 -0.13846403 14
-1.5138292 -7.4402752 -0.28107995 23
-1.3659394 -6.9611492 0.034144282 9
-1.5621746 -7.5142698 0.21608776 40
-1.5655904 -7.4892569 0.47030374 7
-1.5917447 -7.5316191 0.72181404 38
-1.6154807 -7.4926844 1.2233181 50
-0.43773448 -4.211134 -0.15983909 8
-0.64434564 -4.8139944 -0.1655677 12
-0.86789024 -5.4616899 -0.13907534 12
-1.5265803 -7.3994303 -0.27651638 10
-1.3943772 -6.9724512 0.030935824 6
-1.3894863 -6.925807 0.2681095 12
-1.6174736 -7.5281248 0.72085822 37
-1.3483429 -6.6635227 0.95768535 13
-0.45023084 -4.2068558 -0.16029221 9
-0.65894341 -4.8089914 -0.1660971 11
-0.88317668 -5.4512558 -0.13873833 12
-1.3452632 -6.5551596 1.3931887 20
-1.3363361 -6.5618343 0.9550826 13
-0.46271205 -4.2025347 -0.16074532 9
-0.67352355 -4.8039379 -0.16662639 11
-0.89999747 -5.4454184 -0.13934916 11
-1.3126369 -6.5623255 0.2984243 10
-1.3251145 -6.5686388 0.51665592 18
-1.3659966 -6.5478764 1.3924347 36
-1.3510432 -6.5221024 1.1678994 37
-1.3487177 -6.5309744 0.95387208 34
-0.47517765 -4.1981702 -0.16119844 10
-0.68808687 -4.7988338 -0.16715592 11
-0.91519487 -5.4348831 -0.13901037 11
-1.3137975 -6.5582962 -0.14317709 30
-1.3151433 -6.5323124 0.082264423 25
-1.3284047 -6.5409307 0.29896623 33
-1.3408787 -6.5471983 0.51667607 34
-1.3475108 -6.5368795 0.73540515 35
-1.390084 -6.5498905 1.3925585 36
-1.3733411 -6.5194731 1.1674111 38
-1.3727233 -6.533041 0.95330191 38
-0.48920739 -4.1983271 -0.16294259 10
-0.70103121 -4.7890749 -0.16656572 11
-0.93195844 -5.4289351 -0.13962072 13
-1.3344777 -6.5509501 -0.14393014 37
-1.337393 -6.5296679 0.080909908 39
-1.3507073 -6.5382776 0.29778212 38
-1.3632231 -6.5445356 0.51566428 38
-1.3681538 -6.5295143 0.73465312 38
-1.412504 -6.5471306 1.3922415 37
-1.3990593 -6.526144 1.1674445 38
-1.3967693 -6.5350122 0.95272934 38
-0.50165784 -4.1938701 -0.16339642 7
-0.71554232 -4.7838745 -0.16709465 10
-0.94706511 -5.4182997 -0.13928038 14
-1.3567836 -6.5481863 -0.14546102 35
-1.362987 -6.5362883 0.078344107 38
-1.3746977 -6.5402298 0.29616386 38
-1.3855753 -6.5417881 0.5146513 37
-1.3921728 -6.5314779 0.73373115 38
-1.4366534 -6.5489597 1.3923609 37
-1.4179587 -6.5139608 1.1664306 38
-1.4208555 -6.5368862 0.95215434 38
-0.51409352 -4.1893692 -0.16385025 7
-0.72840226 -4.7740316 -0.16650277 12
-0.96211994 -5.4076176 -0.13893878 13
-1.3790967 -6.5453386 -0.14699298 34
-1.3869672 -6.5381327 0.076380372 38
-1.3970308 -6.5374041 0.29497671 37
-1.407934 -6.5389576 0.51363707 37
-1.4162323 -6.5333462 0.7328068 38
-1.4591033 -6.5460243 1.392041 36
-1.4437559 -6.5204401 1.1664591 37
-1.4432428 -6.5339785 0.95148808 37
-0.52651334 -4.1848249 -0.16430408 8
-0.74285984 -4.7687368 -0.16703111 13
-0.97712064 -5.3968887 -0.13859606 10
-1.403101 -6.5470495 -0.14930534 29
-1.409287 -6.5352192 0.075020373 38
-1.421083 -6.5391712 0.29335415 37
-1.4320242 -6.5407276 0.51236093 37
-1.4403312 -6.5351191 0.73187995 38
-1.4833138 -6.5476656 1.3921561 36
-1.4661124 -6.5174627 1.1659647 38
-1.4673903 -6.5356665 0.95090884 37
-0.53727508 -4.1756954 -0.16346461 8
-0.75563622 -4.758811 -0.16643757 13
-0.99206698 -5.3861141 -0.13825214 11
-1.4237411 -6.5393915 -0.15006077 21
-1.4333279 -6.5368776 0.073052526 38
-1.443445 -6.53617 0.29216403 37
-1.4544106 -6.5377226 0.51134378 38
-1.4644678 -6.5367947 0.73095077 38
-1.5075629 -6.5492115 1.3922691 37
-1.4902465 -6.5190697 1.1657282 37
-1.4915752 -6.5372581 0.95032728 37
-0.54964685 -4.1710701 -0.16391796 8
-0.77004039 -4.7534208 -0.16696531 13
-1.0086607 -5.3798981 -0.13886023 13
-1.4426367 -6.52703 -0.1500361 11
-1.4556742 -6.5337896 0.071689546 38
-1.4675577 -6.5377502 0.2905373 36
-1.4785616 -6.5393057 0.51006353 38
-1.4868765 -6.5336962 0.73010653 38
-1.5300615 -6.546011 1.3919443 36
-1.5126319 -6.5159159 1.1652308 38
-1.5140121 -6.5340843 0.94965625 37
-0.56032944 -4.1618719 -0.16307694 9
-0.78273094 -4.743412 -0.16636997 12
-1.0235163 -5.3690262 -0.13851458 16
-1.4597394 -6.509985 -0.14922947 11
-1.4797754 -6.5352612 0.069717407 38
-1.4899454 -6.5345755 0.28934419 37
-1.5027502 -6.5407934 0.50878084 36
-1.5110726 -6.5351858 0.72917318 38
-1.5543687 -6.547369 1.3920531 36
-1.5368252 -6.5173349 1.1649901 37
-1.5382574 -6.5354872 0.94907045 37
-0.57265294 -4.1571665 -0.16352957 8
-0.79708159 -4.7379265 -0.16689724 12
-1.0400491 -5.3626995 -0.13912207 16
-1.4662545 -6.4651823 -0.14373231 10
-1.5039129 -6.5366364 0.067743003 38
-1.5141182 -6.5359678 0.28771335 37
-1.5269756 -6.5421829 0.50749588 38
-1.5353081 -6.5365772 0.72823739 38
-1.5768938 -6.543992 1.3917253 36
-1.5610569 -6.5186577 1.164747 37
-1.5625389 -6.5367947 0.94848228 37
-0.58557487 -4.1521797 -0.16400486 7
-0.81040108 -4.7275581 -0.16632634 13
-1.0573851 -5.3559961 -0.13975984 16
-1.4752614 -6.4246264 -0.13904488 11
-1.5273373 -6.5328817 0.066337466 38
-1.5375631 -6.5322151 0.28647935 37
-1.5504653 -6.5384178 0.50643408 37
-1.5587959 -6.5328102 0.72735041 38
-1.6022933 -6.544754 1.3917918 36
-1.5863554 -6.5194769 1.1644636 37
-1.5878913 -6.5375977 0.94785368 37
-0.59614289 -4.1428738 -0.16316146 7
-0.82469606 -4.7219763 -0.16685289 13
-1.0721083 -5.3449717 -0.13941169 16
-1.4847798 -6.3890858 -0.13509429 11
-1.5515325 -6.5340643 0.06435883 38
-1.5617924 -6.5334158 0.2848444 36
-1.5747497 -6.5396147 0.50514483 37
-1.5830874 -6.534009 0.72641051 38
-1.6266961 -6.5458212 1.391894 36
-1.6106596 -6.5206003 1.1642159 37
-1.6103952 -6.5340605 0.94717622 37
-0.60839963 -4.1380439 -0.1636135 7
-0.83897185 -4.7163448 -0.16737944 13
-1.0885566 -5.3384771 -0.14001846 15
-1.4940796 -6.353549 -0.13113654 13
-1.5757642 -6.5351505 0.06237793 37
-1.5860591 -6.5345192 0.283207 36
-1.5972295 -6.5360727 0.5041182 37
-1.6074173 -6.5351105 0.72546822 37
-1.6511323 -6.5467892 1.3919939 35
-1.6331317 -6.5169954 1.1637102 37
-1.6347706 -6.5350761 0.9465816 37
-0.61888742 -4.1286712 -0.1627683 7
-0.85145235 -4.7061272 -0.1667797 13
-1.1031866 -5.3273563 -0.13966846 13
-1.5031579 -6.3180199 -0.12717158 12
-1.5982013 -6.5315256 0.061005592 38
-1.6103609 -6.5355234 0.28156734 36
-1.6215689 -6.5370808 0.50282496 37
-1.6299162 -6.5314751 0.72461462 38
-1.6737208 -6.5430489 1.3916597 35
-1.6574912 -6.5179291 1.1634583 37
-1.6572969 -6.5313635 0.94590122 37
-0.63109434 -4.1237621 -0.16321963 7
-0.86496246 -4.7006903 -0.1672793 13
-1.1169434 -5.3165236 -0.13928699 10
-1.5110309 -6.2828979 -0.12316304 11
-1.6214569 -6.5328407 0.059058905 38
-1.6336672 -6.53685 0.27996349 36
-1.6449122 -6.5384102 0.5015676 37
-1.6532688 -6.5328064 0.72370654 38
-1.6971757 -6.5442524 1.391794 34
-1.6808569 -6.519187 1.1632425 37
-1.6806948 -6.5326128 0.94534081 37
-0.64267564 -4.1190586 -0.16364843 7
-0.87664866 -4.6906834 -0.16665167 13
-1.13065 -5.3056507 -0.13890433 10
-1.5186963 -6.2477884 -0.1191476 11
-1.6428866 -6.5294666 0.057721913 37
-1.6570072 -6.5380859 0.27835751 37
-1.6682911 -6.53965 0.50030804 36
-1.6766558 -6.5340481 0.72279626 37
-1.7206671 -6.5453653 1.3919261 35
-1.7042563 -6.5203552 1.1630243 37
-1.7041276 -6.5337715 0.9447782 38
-0.65305078 -4.1095858 -0.16280085 7
-0.89152229 -4.6845798 -0.16720313 13
-1.1459337 -5.2940674 -0.13858104 8
-1.5281034 -6.2118855 -0.11519778 11
-1.6682565 -6.5297556 0.055694878 37
-1.6824465 -6.5383787 0.27667272 36
-1.6918654 -6.535327 0.49923682 37
-1.7021425 -6.5343418 0.72180712 38
-1.7462633 -6.5455227 1.391979 35
-1.7297523 -6.5205717 1.1627274 37
-1.7277281 -6.5293665 0.94405502 37
-0.66700542 -4.1090317 -0.16455096 7
-0.90382969 -4.6742048 -0.16659993 11
-1.1603465 -5.282773 -0.13822621 11
-1.5363097 -6.1763945 -0.11120427 11
-1.6926301 -6.5303688 0.053703725 37
-1.7068882 -6.5389938 0.27502394 37
-1.7163289 -6.5359526 0.49793503 38
-1.7247026 -6.5303507 0.72094727 37
-1.7708583 -6.5460091 1.3920681 35
-1.7523026 -6.5165186 1.1622138 37
-1.7522454 -6.5299063 0.94345009 37
-0.6834116 -4.1126347 -0.16762489 7
-0.9167887 -4.663497 -0.16602153 12
-1.1755134 -5.2710943 -0.13790017 11
-1.5433664 -6.1359501 -0.10645282 11
-1.7180691 -6.530448 0.051671863 37
-1.7304707 -6.534481 0.27377635 37
-1.7418594 -6.5360422 0.49659246 37
-1.750241 -6.5304413 0.71995401 37
-1.7965221 -6.5459547 1.3921163 35
-1.7778502 -6.516531 1.1619127 37
-1.7778289 -6.5299072 0.94280446 37
-0.69740772 -4.1119609 -0.16937774 5
-0.93086028 -4.6575441 -0.16654533 12
-1.1879224 -5.2551832 -0.13658261 12
-1.5549331 -6.1095963 -0.10401887 11
-1.7425103 -6.530859 0.04967618 37
-1.7549644 -6.5349016 0.27212352 37
-1.766392 -6.5364637 0.49528599 37
-1.774781 -6.5308647 0.71899682 37
-1.8211834 -6.5462379 1.3922007 35
-1.8024001 -6.5168791 1.1616477 37
-1.8024142 -6.5302439 0.94219494 37
-0.71700239 -4.1245947 -0.17503554 15
-0.94302499 -4.6470518 -0.16593879 13
-1.2021505 -5.243763 -0.13622332 12
-1.5644197 -6.0786839 -0.10079217 12
-1.7669842 -6.5311718 0.047678173 36
-1.7794905 -6.535223 0.27046841 37
-1.7909565 -6.536787 0.49397728 37
-1.7993562 -6.531189 0.71803731 38
-1.8438795 -6.5418577 1.3918555 35
-1.8269849 -6.517128 1.1613805 37
-1.8270321 -6.5304832 0.94158322 37
-0.72356331 -4.1059985 -0.17158514 10
-0.95703852 -4.6410084 -0.16646188 13
-1.2163229 -5.2323008 -0.13586277 14
-1.5737185 -6.0477724 -0.097559392 12
-1.7914925 -6.5313845 0.0456779 37
-1.804049 -6.5354452 0.26881111 36
-1.8155546 -6.5370102 0.49266633 36
-1.8239632 -6.531414 0.71707565 37
-1.8685896 -6.5419474 1.3919361 35
-1.8495865 -6.5127087 1.1608609 37
-1.8516839 -6.5306206 0.94096917 37
-0.73190546 -4.0918417 -0.16943341 12
-0.96911442 -4.6304379 -0.16585344 12
-1.2304399 -5.2207956 -0.13550091 15
-1.5847886 -6.0213966 -0.095109701 11
-1.8160315 -6.531498 0.043675423 36
-1.8266535 -6.5310001 0.26759583 36
-1.8401856 -6.5371342 0.49135309 37
-1.8486023 -6.531539 0.71611166 38
-1.8913035 -6.5373878 1.3915881 35
-1.8742199 -6.512763 1.1605897 37
-1.8763659 -6.5306578 0.94035298 37
-0.74016809 -4.0776682 -0.16727954 13
-0.98306966 -4.6243038 -0.1663757 13
-1.2445015 -5.2092485 -0.13513786 14
-1.5937304 -5.9904852 -0.09186554 9
-1.838613 -6.5269642 0.042287648 37
-1.8512607 -6.5310297 0.26593465 35
-1.8648474 -6.5371571 0.49003768 37
-1.873275 -6.5315638 0.71514547 37
-1.9160619 -6.5372849 1.3916647 35
-1.8988841 -6.5127201 1.1603163 37
-1.9010806 -6.5305948 0.93973446 37
-0.75027299 -4.0679083 -0.1664266 11
-0.99505675 -4.613657 -0.16576546 12
-1.2585061 -5.1976595 -0.13477337 13
-1.6044745 -5.9640951 -0.089405477 9
-1.8631997 -6.526886 0.040281355 36
-1.8758996 -6.5309582 0.2642712 35
-1.8895419 -6.5370798 0.48872 36
-1.8979781 -6.5314884 0.71417707 37
-1.9408517 -6.5370808 1.3917394 34
-1.9235797 -6.5125761 1.1600409 37
-1.9258273 -6.5304317 0.9391138 36
-0.76226759 -4.0625405 -0.16687661 10
-1.0089533 -4.6074324 -0.166287 10
-1.2724555 -5.1860294 -0.13440764 11
-1.6130598 -5.9331856 -0.086149752 9
-1.8878174 -6.5267057 0.038272858 36
-1.9005709 -6.5307856 0.26260555 37
-1.9122198 -6.5323496 0.48767275 36
-1.9227133 -6.531312 0.71320641 37
-1.9656708 -6.5367765 1.3918117 34
-1.9483075 -6.5123301 1.159763 37
-1.9506035 -6.5301676 0.93849087 36
-0.77228928 -4.0527172 -0.16602188 10
-1.0208492 -4.5967093 -0.16567463 11
-1.2863476 -5.1743565 -0.13404059 11
-1.6234777 -5.9067869 -0.083679378 9
-1.9124668 -6.5264254 0.036262095 36
-1.9252717 -6.5305138 0.26093769 35
-1.9369605 -6.5320787 0.48635128 36
-1.947479 -6.5310335 0.7122336 37
-1.9905212 -6.5363703 1.3918818 35
-1.9730644 -6.5119848 1.1594831 37
-1.9754124 -6.5298023 0.93786579 36
-0.78423011 -4.0472732 -0.16647106 9
-1.032693 -4.5859518 -0.16506094 12
-1.3001835 -5.1626434 -0.1336723 12
-1.6317058 -5.8758841 -0.080412149 10
-1.937145 -6.5260448 0.034249246 36
-1.9500041 -6.5301399 0.25926769 36
-1.961731 -6.5317059 0.48502764 35
-1.9722757 -6.5306559 0.71125853 37
-2.0154026 -6.5358639 1.3919498 35
-1.9978528 -6.5115376 1.1592009 37
-2.0002499 -6.529336 0.93723851 36
-0.79416776 -4.0373878 -0.16561431 8
-1.0444832 -4.57516 -0.16444606 11
-1.3139641 -5.1508884 -0.13330257 12
-1.6417999 -5.8494787 -0.077931464 10
-1.961854 -6.5255632 0.032234192 37
-1.9768493 -6.5341892 0.25714761 36
-1.9865324 -6.5312319 0.48370177 36
-1.9971023 -6.5301752 0.71028137 36
-2.0424368 -6.5397625 1.3924383 35
-2.0247958 -6.5155096 1.1591625 36
-2.0251172 -6.5287685 0.93660909 35
-0.80605567 -4.031867 -0.16606277 11
-1.0562212 -4.5643349 -0.16382986 11
-1.327687 -5.1390934 -0.13293153 12
-1.6517389 -5.8230677 -0.075445771 10
-1.9865921 -6.5249796 0.030216932 36
-2.0016558 -6.5336075 0.25547266 36
-2.0113635 -6.5306578 0.48237371 36
-2.0219581 -6.5295944 0.70930195 37
-2.0673914 -6.5390453 1.3925014 34
-2.0496585 -6.5148525 1.1588755 37
-2.0500147 -6.5280981 0.93597746 36
-0.81792402 -4.0263047 -0.16651112 12
-1.0679048 -4.5534754 -0.16321236 11
-1.3434169 -5.1317081 -0.13352591 9
-1.6615231 -5.7966518 -0.072955191 10
-2.0113592 -6.5242968 0.028197587 36
-2.0264931 -6.5329218 0.2537955 36
-2.0362236 -6.5299807 0.48104355 36
-2.048981 -6.5334311 0.70821929 37
-2.0923753 -6.5382252 1.3925622 34
-2.0745509 -6.5140944 1.1585863 37
-2.0749407 -6.5273266 0.93534368 36
-0.82977247 -4.0207014 -0.16695923 11
-1.0815914 -4.546998 -0.16373008 11
-1.3570418 -5.1198244 -0.13315278 9
-1.6732516 -5.7747002 -0.071254075 10
-2.0361557 -6.5235109 0.026176035 36
-2.0513577 -6.532136 0.25211626 36
-2.0611134 -6.5292015 0.47971117 36
-2.0739119 -6.5326395 0.70723498 36
-2.1195583 -6.5417881 1.393042 35
-2.0994713 -6.5132341 1.1582949 37
-2.0998964 -6.526453 0.93470776 37
-0.8395561 -4.0106859 -0.16609913 11
-1.0931844 -4.5360646 -0.16311044 11
-1.3727031 -5.1123381 -0.13374609 10
-1.6890852 -5.761652 -0.071139216 11
-2.0631111 -6.5271034 0.023530245 37
-2.0762525 -6.5312471 0.25043482 37
-2.0881891 -6.5328236 0.47809994 36
-2.0988708 -6.531745 0.70624858 37
-2.1446137 -6.5407572 1.3930981 34
-2.1244206 -6.5122709 1.1580013 36
-2.1248786 -6.5254784 0.93406975 37
-0.85135043 -4.0050068 -0.1665464 12
-1.1068099 -4.5294981 -0.16362721 10
-1.3883393 -5.1047955 -0.13433927 9
-1.7069862 -5.7530098 -0.071818411 12
-2.0879791 -6.5261059 0.021503925 37
-2.1011732 -6.5302572 0.24875128 36
-2.1131511 -6.5318336 0.47676271 36
-2.123857 -6.5307484 0.70526004 37
-2.169698 -6.5396223 1.3931519 34
-2.1493974 -6.5112057 1.1577057 36
-2.149889 -6.5243998 0.9334296 37
-0.86312497 -3.9992869 -0.16699368 12
-1.1204126 -4.5228844 -0.16414398 11
-1.4039481 -5.0971994 -0.13493228 10
-1.7248583 -5.7443047 -0.072497427 12
-2.1128745 -6.5250082 0.0194754 35
-2.1282992 -6.5336437 0.24661422 36
-2.13814 -6.5307398 0.4754234 36
-2.1488714 -6.5296488 0.70426935 37
-2.1948078 -6.5383854 1.3932037 34
-2.1766205 -6.514513 1.1576504 37
-2.177146 -6.5276985 0.93285817 36
-0.87487936 -3.9935257 -0.16744071 12
-1.1318754 -4.5118389 -0.16352159 13
-1.4195304 -5.0895481 -0.13552505 13
-1.7426984 -5.7355375 -0.073176205 11
-2.1399739 -6.528264 0.016820967 36
-2.1532922 -6.5324402 0.2449258 36
-2.1653616 -6.5340233 0.4738034 36
-2.173914 -6.5284472 0.70327652 37
-2.2199438 -6.5370464 1.3932534 34
-2.2016675 -6.5132351 1.1573499 37
-2.2022262 -6.5264072 0.93221319 37
-0.88661301 -3.9877238 -0.16788751 10
-1.1454158 -4.5051374 -0.16403729 12
-1.4350863 -5.0818434 -0.13611764 12
-1.7605078 -5.7267084 -0.073854685 13
-2.1649384 -6.5269527 0.014787734 36
-2.1783104 -6.5311346 0.24323547 36
-2.1904213 -6.5327177 0.47245923 37
-2.1989815 -6.5271416 0.70228165 37
-2.2451086 -6.5356026 1.3933011 34
-2.2267404 -6.5118532 1.1570474 36
-2.2295828 -6.5294771 0.9316358 37
-0.89832699 -3.9818809 -0.16833419 10
-1.1567862 -4.4940205 -0.16341287 11
-1.4484439 -5.069685 -0.13573927 10
-1.7804785 -5.7222385 -0.075330853 13
-2.192138 -6.5299797 0.012127221 36
-2.2055798 -6.5341816 0.24108964 35
-2.2155058 -6.5313082 0.47111309 35
-2.2263246 -6.5301991 0.70117933 37
-2.2702966 -6.5340557 1.3933467 34
-2.2518404 -6.5103703 1.1567428 37
-2.2547317 -6.5279713 0.93098605 36
-0.907884 -3.9716706 -0.16746908 12
-1.168102 -4.4828701 -0.1627869 11
-1.4639308 -5.0618792 -0.13633084 8
-1.7982411 -5.7132769 -0.076009452 13
-2.2171698 -6.5284548 0.010089338 35
-2.2306659 -6.5326605 0.23939449 36
-2.2406163 -6.5297956 0.4697648 35
-2.2514608 -6.5286798 0.7001797 37
-2.297792 -6.5368357 1.3938069 35
-2.2769642 -6.5087824 1.1564362 36
-2.2799056 -6.5263615 0.93033427 36
-0.91739023 -3.9614353 -0.16660267 11
-1.1793641 -4.4716883 -0.16215962 10
-1.4771886 -5.0496368 -0.13595021 8
-1.8159735 -5.7042532 -0.076687813 14
-2.2422259 -6.5268269 0.0080493689 36
-2.2557774 -6.5310383 0.23769724 35
-2.2680216 -6.5326252 0.46813348 36
-2.2789006 -6.5315056 0.69907153 37
-2.3230464 -6.5350742 1.3938479 34
-2.3044119 -6.5115252 1.1563668 36
-2.3051052 -6.5246477 0.92968041 36
-0.92901266 -3.9554849 -0.16704768 11
-1.1905719 -4.4604759 -0.16153103 10
-1.4926047 -5.0417299 -0.13654071 8
-1.8336732 -5.6951675 -0.077365875 15
-2.267308 -6.525095 0.0060073137 35
-2.2809138 -6.5293112 0.23599797 35
-2.2931983 -6.5308981 0.46678051 36
-2.3041041 -6.5297709 0.69806713 37
-2.3483257 -6.5332088 1.3938868 34
-2.3296027 -6.5097227 1.1560555 36
-2.3326414 -6.5272627 0.92909181 36
-0.93843198 -3.9451911 -0.16617924 11
-1.2017255 -4.4492331 -0.16090113 9
-1.5057619 -5.0294027 -0.13615781 7
-1.8468363 -5.6772385 -0.076443255 13
-2.2924144 -6.5232601 0.003963232 35
-2.3060756 -6.5274801 0.23429668 35
-2.3184011 -6.5290651 0.46542546 36
-2.3293307 -6.5279312 0.69706076 37
-2.3736303 -6.5312376 1.3939235 35
-2.3571455 -6.5122347 1.1559803 36
-2.3579061 -6.5253334 0.9284333 36
-0.94999695 -3.939168 -0.16662329 10
-1.2150478 -4.4422884 -0.16141278 11
-1.5211067 -5.0213966 -0.13674718 7
-1.8689785 -5.6768122 -0.078721166 11
-2.3175445 -6.5213213 0.0019171238 35
-2.3335629 -6.5299606 0.23213708 35
-2.3436267 -6.5271292 0.46406841 36
-2.3569078 -6.5304136 0.69594401 37
-2.401299 -6.5335617 1.3943727 34
-2.3824008 -6.5102148 1.1556643 36
-2.3831944 -6.5232983 0.9277727 36
-0.9615413 -3.933104 -0.16706723 11
-1.2261072 -4.4309745 -0.16078061 11
-1.534162 -5.0089855 -0.13636208 8
-1.9048469 -5.7025461 -0.085809767 7
-2.3426993 -6.5192776 -0.0001309514 26
-2.3587875 -6.527914 0.23043114 35
-2.368876 -6.5250893 0.46270937 35
-2.3821986 -6.5283575 0.694933 36
-2.4266653 -6.531373 1.3944049 34
-2.4100368 -6.5124931 1.1555834 36
-2.4085057 -6.5211592 0.9271102 36
-0.97141325 -3.9224145 -0.16621798 12
-1.2400275 -4.4235926 -0.16131669 12
-1.550199 -5.0004749 -0.13697982 9
-1.9464147 -5.7363482 -0.094545782 8
-2.3642688 -6.5078096 -0.00096201897 13
-2.3873975 -6.5296097 0.22822607 35
-2.397526 -6.5267992 0.46102455 35
-2.4085441 -6.5256453 0.69388014 37
-2.4530869 -6.5285263 1.3943954 34
-2.4363828 -6.5097036 1.1552231 36
-2.4348707 -6.5183601 0.92640579 36
-0.98289824 -3.9162762 -0.16666085 12
-1.2532606 -4.4165144 -0.16182703 13
-1.5654428 -4.9923143 -0.13756776 9
-1.9572828 -5.7137289 -0.092825055 9
-2.380106 -6.4880619 -0.00049328804 9
-2.4150326 -6.5317307 0.22605747 34
-2.422837 -6.5245361 0.45966089 35
-2.4362521 -6.5277758 0.69275498 37
-2.4784977 -6.526124 1.3944235 22
-2.4641118 -6.5117416 1.1551363 37
