# .PCD v0.7 - Point Cloud Data file format
VERSION 0.7
FIELDS x y z intensity
SIZE 4 4 4 4
TYPE F F F F
COUNT 1 1 1 1
WIDTH 1322
HEIGHT 1
VIEWPOINT 0 0 0 1 0 0 0
POINTS 1322
DATA ascii
-3.8446364 -6.5116987 0.63411462 36
-3.9052501 -6.5221138 1.4171119 12
-3.8700652 -6.4872236 1.1489133 7
-3.8786716 -6.5074711 0.8937422 34
-1.4585283 -3.491183 -0.16115516 8
-1.7857418 -3.9066796 -0.1536057 14
-2.0888302 -4.288537 -0.10370618 12
-2.4694366 -4.7679577 -0.039463639 7
-2.909404 -5.3208542 0.052920699 12
-3.8552394 -6.5190525 0.11127657 25
-3.8676338 -6.5168047 0.37181729 33
-3.8775144 -6.5113373 0.63270676 36
-3.938251 -6.5215206 1.4177917 31
-3.9029474 -6.4867659 1.148891 29
-3.9116106 -6.506978 0.89303112 33
-1.4690049 -3.4829562 -0.16159075 9
-1.7947581 -3.8934116 -0.15293121 11
-2.0992169 -4.2741375 -0.10325915 12
-2.4754846 -4.7443762 -0.037599444 8
-2.920469 -5.2995214 0.053523958 12
-3.8860278 -6.5137959 0.10891801 17
-3.901557 -6.5154715 0.36966509 33
-3.9145737 -6.5139246 0.63111329 35
-3.9692221 -6.5160561 1.4180415 32
-3.9369059 -6.4853363 1.1488223 28
-3.9456306 -6.5055075 0.89227349 34
-1.4759943 -3.4712868 -0.16066056 6
-1.8061383 -3.884403 -0.15340513 8
-2.1058803 -4.256362 -0.10177916 12
-2.483737 -4.7252502 -0.036533177 8
-2.9275444 -5.2749281 0.054823756 12
-3.9158125 -6.5092106 0.10659987 11
-3.9345059 -6.5147858 0.36755201 33
-3.9475698 -6.5132313 0.62969756 36
-4.0023136 -6.515151 1.4187146 23
-3.9730225 -6.4884491 1.148999 2
-3.9786749 -6.5046911 0.89155513 34
-1.4859035 -3.4633913 -0.16107386 6
-1.8144791 -3.8715358 -0.15270418 11
-2.11549 -4.2424278 -0.10130149 13
-2.4918959 -4.7061176 -0.035463989 7
-2.9375784 -5.2542219 0.055467606 9
-3.9425201 -6.500597 0.1047675 6
-3.967505 -6.5139437 0.36543542 33
-3.9806185 -6.5123777 0.62827832 36
-4.0354548 -6.5140886 1.4193845 2
-4.0060744 -6.4875002 1.1489654 30
-4.0117702 -6.5037155 0.8908332 34
-1.4927981 -3.4516838 -0.16014117 8
-1.8227632 -3.8586502 -0.15200162 11
-2.1219897 -4.2246375 -0.099816501 13
-2.5030355 -4.6908312 -0.035224974 6
-2.9475129 -5.2335033 0.056114554 8
-3.9723401 -6.4957485 0.10244501 5
-4.0005569 -6.5129414 0.36331519 32
-4.0137177 -6.5113668 0.62685555 35
-4.0686483 -6.5128651 1.4200505 12
-4.0391755 -6.486392 1.1489282 34
-4.0449166 -6.5025806 0.89010769 34
-1.5026381 -3.4437304 -0.16055292 9
-1.8279552 -3.8419497 -0.15012205 12
-2.1314626 -4.210669 -0.099334836 13
-2.5110216 -4.6716747 -0.034150481 6
-2.9542363 -5.2089138 0.057425737 8
-3.9990544 -6.4868927 0.10060954 5
-4.0368013 -6.5156555 0.36087555 33
-4.0468678 -6.5101957 0.62542921 35
-4.1050568 -6.5153322 1.4210944 31
-4.0754995 -6.4889851 1.1490918 34
-4.0781121 -6.5012856 0.88937873 34
-1.5124512 -3.4357421 -0.16096419 9
-1.8361094 -3.8290389 -0.14941561 12
-2.1377976 -4.1928663 -0.097844541 14
-2.518913 -4.6525126 -0.033073068 7
-2.9702077 -5.1958752 0.056755841 11
-4.0257645 -6.4779224 0.098772883 15
-4.0699654 -6.5143242 0.35874778 33
-4.0800676 -6.5088634 0.62399936 35
-4.1383595 -6.5137787 1.4217532 23
-4.1087132 -6.487546 1.1490471 29
-4.1145415 -6.503686 0.88867855 34
-1.5222356 -3.4277201 -0.16137499 9
-1.8442054 -3.8161108 -0.14870745 12
-2.1440446 -4.175065 -0.096351564 11
-2.5267103 -4.6333447 -0.031992674 7
-2.9829955 -5.1789455 0.056749105 11
-4.0461569 -6.4611435 0.097915947 11
-4.1031795 -6.5128317 0.35661647 33
-4.116497 -6.5112267 0.62242335 35
-4.1717114 -6.512064 1.4224082 6
-4.1419754 -6.4859467 1.148999 3
-4.1478481 -6.5020599 0.88794202 33
-1.5319924 -3.4196634 -0.1617853 8
-1.8522425 -3.8031657 -0.14799762 13
-2.1533043 -4.1610527 -0.095863521 11
-2.5344157 -4.614172 -0.030909359 7
-2.9957099 -5.1619816 0.056744218 10
-4.0664916 -6.444293 0.097060084 12
-4.1364403 -6.511179 0.35448173 33
-4.1498079 -6.5095625 0.62098598 36
-4.2051096 -6.51019 1.4230599 8
-4.1752868 -6.4841871 1.1489472 31
-4.1844134 -6.5041046 0.8872332 34
-1.5386689 -3.4078488 -0.16084677 9
-1.8602223 -3.7902036 -0.14728636 13
-2.1593876 -4.1432409 -0.094365358 12
-2.5420263 -4.5949945 -0.029823065 8
-3.0083535 -5.1449842 0.056741238 7
-4.0835843 -6.4235458 0.096696913 13
-4.1697493 -6.5093651 0.35234356 32
-4.1863732 -6.51157 0.61940134 35
-4.2385559 -6.508153 1.4237082 31
-4.2086439 -6.4822664 1.1488922 12
-4.2178288 -6.5021439 0.88648915 33
-1.5483558 -3.3997357 -0.16125554 8
-1.8712418 -3.7809675 -0.14775139 13
-2.1685109 -4.1291976 -0.093873441 11
-2.5527 -4.5796003 -0.029570341 8
-3.0209229 -5.1279554 0.056740344 7
-4.1005912 -6.402751 0.096335828 12
-4.2063155 -6.5112095 0.34988311 32
-4.2197905 -6.509573 0.61795652 36
-4.275281 -6.5097504 1.4247316 11
-4.2517629 -6.4915972 1.1494384 34
-4.2512894 -6.5000229 0.88574171 33
-1.5580151 -3.3915882 -0.16166383 9
-1.879117 -3.7679605 -0.14703709 12
-2.1744304 -4.1113768 -0.092369974 10
-2.5601373 -4.5604038 -0.028478742 7
-3.0302298 -5.1070995 0.057405829 9
-4.1143031 -6.3781071 0.09646976 13
-4.2397299 -6.5090628 0.34773752 32
-4.2564902 -6.5112238 0.61636329 35
-4.3088303 -6.5073805 1.4253726 5
-4.2885032 -6.4931135 1.1495757 34
-4.2880468 -6.5015383 0.88502038 33
-1.5676451 -3.3834074 -0.16207153 6
-1.8900595 -3.7586586 -0.14750046 10
-2.1834161 -4.0973034 -0.091874003 10
-2.5674818 -4.5412045 -0.027384162 7
-3.0426404 -5.0900164 0.057409346 10
-4.131125 -6.3572283 0.096113741 15
-4.2764273 -6.5105495 0.34526855 32
-4.2900119 -6.5088911 0.61491108 35
-4.345685 -6.5086184 1.4263874 7
-4.3220501 -6.4906626 1.1495082 35
-4.3216114 -6.4990807 0.8842656 33
-1.5772467 -3.3751926 -0.16247886 6
-1.8978307 -3.7456088 -0.14678341 12
-2.1923394 -4.08321 -0.091376245 15
-2.5747344 -4.5220013 -0.026286602 8
-3.0549791 -5.0729027 0.05741477 10
-4.1478605 -6.3363008 0.095759869 11
-4.3099456 -6.5080662 0.3431156 33
-4.3268409 -6.5101824 0.61330938 35
-4.3826084 -6.5096722 1.427398 29
-4.3584962 -6.5002356 0.8835358 34
-1.5899355 -3.3706145 -0.16423649 5
-1.9086943 -3.7362421 -0.14724499 12
-2.2012014 -4.0690975 -0.090876698 13
-2.5786846 -4.4990535 -0.024347425 6
-3.067245 -5.0557547 0.057422161 10
-4.1645098 -6.3153276 0.095408201 11
-4.3467703 -6.5091934 0.34063822 32
-4.363739 -6.5112886 0.61170328 35
-4.4196029 -6.51054 1.428404 29
-4.3892756 -6.4852715 1.1493629 32
-4.3954525 -6.5012045 0.88280153 34
-1.5994921 -3.3623223 -0.16464323 14
-1.916363 -3.7231493 -0.14652514 13
-2.2068069 -4.0512524 -0.089363456 12
-2.5857372 -4.4798574 -0.023243368 4
-3.0794373 -5.0385761 0.057431579 11
-4.1810737 -6.2943077 0.095058739 13
-4.3836646 -6.5101347 0.33815646 33
-4.397418 -6.5084448 0.61023986 35
-4.4533648 -6.5074844 1.4290298 6
-4.432476 -6.5019884 0.88206285 33
-1.6090202 -3.3539963 -0.16504949 12
-1.9239726 -3.710042 -0.14580363 13
-2.2155313 -4.0371118 -0.088859856 13
-2.5926974 -4.46066 -0.02213645 6
-3.0915573 -5.0213671 0.057442963 10
-4.1975493 -6.273242 0.094711542 14
-4.4173374 -6.5071402 0.33599234 33
-4.434442 -6.5091887 0.60862529 34
-4.493794 -6.5117168 1.4304028 13
-4.4662514 -6.4988432 0.88129306 33
-1.6189928 -3.3452187 -0.16547531 13
-1.9320588 -3.6964452 -0.14510322 13
-2.224786 -4.022428 -0.0883798 12
-2.600229 -4.4408717 -0.021054864 8
-3.1076374 -5.0071735 0.056755722 10
-4.2182097 -6.2549925 0.09382838 13
-4.4553819 -6.5068083 0.3334583 33
-4.4725595 -6.5088348 0.6069625 34
-4.5286927 -6.5073919 1.4309769 18
-4.5044231 -6.4983473 0.8805021 33
-1.6252937 -3.3331997 -0.16452724 13
-1.9395487 -3.6833053 -0.14437819 13
-2.2301497 -4.0045705 -0.086858928 12
-2.6069996 -4.42167 -0.019941866 8
-3.119621 -4.9898901 0.056770504 8
-4.237823 -6.2375431 0.092988491 13
-4.4924655 -6.5071945 0.33096379 32
-4.5063891 -6.5054684 0.605488 34
-4.5659399 -6.5075178 1.4319657 16
-4.5419726 -6.4901724 1.1499743 32
-4.541636 -6.4985723 0.87975067 32
-1.6347198 -3.324784 -0.16493124 13
-1.9437659 -3.6665094 -0.14246833 13
-2.2386725 -3.9903841 -0.086349487 13
-2.6136777 -4.4024696 -0.018825889 8
-3.1348267 -4.9762764 0.056118369 9
-4.2573771 -6.2200241 0.092149734 11
-4.5296149 -6.5073938 0.32846481 32
-4.5435996 -6.5056553 0.6038608 34
-4.6032534 -6.5074558 1.4329504 17
-4.5658054 -6.4754086 1.1492912 7
-4.5789127 -6.4986105 0.87899488 32
-1.640924 -3.3127337 -0.16398042 14
-1.9511266 -3.6533525 -0.14173931 13
-2.2471323 -3.9761789 -0.085838139 13
-2.6202631 -4.3832684 -0.017706931 8
-3.1499846 -4.9626093 0.055467129 9
-4.2768683 -6.2024374 0.09131211 13
-4.5668306 -6.5074034 0.32596147 31
-4.5808744 -6.5056543 0.60222924 34
-4.6406312 -6.5072041 1.4339306 27
-4.6098185 -6.482686 1.1497841 33
-4.6162548 -6.4984598 0.87823474 32
-1.6502786 -3.3042636 -0.16438276 14
-1.957902 -3.6406591 -0.14098591 13
-2.2549484 -3.9624851 -0.085299909 12
-2.6261039 -4.3646603 -0.016556919 8
-3.164341 -4.9495764 0.054849207 10
-4.2953286 -6.185667 0.090517461 15
-4.6030831 -6.5081625 0.32349813 32
-4.6171875 -6.506402 0.60063767 34
-4.6736636 -6.5040398 1.4345787 5
-4.6461577 -6.4833107 1.1499237 33
-4.6526332 -6.4990616 0.87751466 34
-1.6559219 -3.2926066 -0.16340917 15
-1.9646242 -3.6279542 -0.14023095 12
-2.2594244 -3.9451447 -0.083744347 12
-2.6351688 -4.3497076 -0.016247213 9
-3.1753204 -4.9328299 0.054902792 10
-4.3137336 -6.1688356 0.089723825 10
-4.6393986 -6.5087442 0.32103068 31
-4.6535645 -6.5069723 0.59904182 34
-4.710125 -6.5043783 1.4355953 4
-4.6859527 -6.4874258 1.1502541 33
-4.689075 -6.499486 0.8767904 33
-1.6652062 -3.2840843 -0.16380984 10
-1.9723353 -3.6142783 -0.13951951 12
-2.2682655 -3.9303699 -0.083252132 12
-2.6421425 -4.3299036 -0.015147984 8
-3.1910758 -4.9183302 0.054222286 10
-4.3373752 -6.1538248 0.088348567 11
-4.6778302 -6.5072508 0.31847018 31
-4.6886649 -6.5017948 0.59750473 32
-4.7487049 -6.5026283 1.436519 34
-4.7244773 -6.4857817 1.1502963 33
-4.7276311 -6.4978228 0.87597311 32
-1.6712191 -3.2719727 -0.16285366 7
-1.9794636 -3.6010675 -0.13878369 11
-2.2764671 -3.9161077 -0.082733154 12
-2.6517098 -4.3143229 -0.014861882 8
-3.2026722 -4.9008245 0.054246962 9
-4.3566351 -6.1359596 0.087515056 10
-4.7152977 -6.5065098 0.3159498 32
-4.7261786 -6.5010529 0.59585667 32
-4.7897329 -6.5052691 1.4378536 10
-4.7620387 -6.4848928 1.1503785 34
-4.765223 -6.4969187 0.87519592 33
-1.6776373 -3.2594225 -0.16191572 6
-1.9870505 -3.5873606 -0.13806856 9
-2.2851765 -3.901294 -0.082237065 12
-2.6585019 -4.2945065 -0.013756931 8
-3.2149377 -4.8825941 0.054241419 10
-4.3767915 -6.1171284 0.086641192 12
-4.7538514 -6.5046158 0.3133806 31
-4.7647796 -6.4991579 0.59415978 33
-4.8284464 -6.5031071 1.4387679 11
-4.800684 -6.4828482 1.150412 33
-4.807333 -6.4984903 0.87439162 33
-1.6835389 -3.2472913 -0.16095608 9
-1.9940593 -3.5741227 -0.13732916 9
-2.2932506 -3.8869984 -0.081714511 14
-2.6645591 -4.2752895 -0.012621224 9
-3.2263834 -4.8650312 0.054270089 11
-4.3959236 -6.0991249 0.085810125 14
-4.7948561 -6.5071201 0.31052399 30
-4.8058457 -6.5016623 0.59234983 34
-4.8696294 -6.5053234 1.4400926 17
-4.8383646 -6.4815702 1.1504856 34
-4.8450556 -6.4971848 0.87360543 33
-1.6926656 -3.2386732 -0.16135293 9
-2.0010107 -3.5608726 -0.13658822 11
-2.3012614 -3.872685 -0.08118993 12
-2.6738977 -4.2596684 -0.012328267 8
-3.237756 -4.8474379 0.054300904 11
-4.4149923 -6.0810547 0.084980309 14
-4.8325157 -6.5057888 0.30799031 31
-4.8435521 -6.50033 0.59068847 33
-4.9074435 -6.5037279 1.4410425 6
-4.8761034 -6.4801025 1.1505553 34
-4.8828359 -6.4956884 0.87281507 32
-1.6984704 -3.2265131 -0.16039056 10
-2.0079026 -3.5476093 -0.13584542 12
-2.3092103 -3.8583558 -0.080663681 12
-2.6797836 -4.2404461 -0.011187136 7
-3.2524638 -4.8334131 0.053659856 11
-4.4339976 -6.0629187 0.084151745 14
-4.8702321 -6.5042648 0.30545253 30
-4.8813157 -6.498805 0.58902293 33
-4.9453139 -6.5019426 1.4419886 12
-4.9173708 -6.4820347 1.1508121 33
-4.9241457 -6.4975967 0.87204051 32
-1.7042212 -3.2143438 -0.15942663 9
-2.0147359 -3.5343347 -0.13510084 12
-2.3170969 -3.8440113 -0.080135524 13
-2.6957729 -4.2319312 -0.012583792 6
-3.2637 -4.8157539 0.053694189 11
-4.45294 -6.0447159 0.083324432 14
-4.9080043 -6.5025482 0.30291063 30
-4.9226065 -6.5006847 0.58719826 33
-4.9832392 -6.4999638 1.4429305 31
-4.9552355 -6.4801693 1.1508729 33
-4.9620533 -6.4957027 0.87124133 31
-1.7132323 -3.2056546 -0.15982056 9
-2.0215106 -3.5210476 -0.13435459 11
-2.3249211 -3.8296516 -0.079605639 12
-2.7049229 -4.2162371 -0.012285709 14
-3.2782974 -4.8016376 0.053055584 12
-4.4718189 -6.0264473 0.082498372 14
-4.9493046 -6.5042248 0.30003458 31
-4.9604974 -6.498764 0.5855239 32
-5.024713 -6.5013514 1.4442357 5
-4.9966531 -6.4816818 1.1511199 32
-5.0000162 -6.4936152 0.87043804 32
-1.7188854 -3.1934581 -0.15885377 9
-2.0282271 -3.5077488 -0.13360655 12
-2.3292873 -3.8117507 -0.078053236 11
-2.7174296 -4.2040663 -0.012833834 17
-3.2928452 -4.7874708 0.052417994 11
-4.4906335 -6.008112 0.081673503 14
-4.9872026 -6.5021114 0.29748386 31
-4.9984431 -6.4966469 0.58384538 33
-5.0627599 -6.4989748 1.445169 22
-5.0346422 -6.4794178 1.1511719 32
-5.041543 -6.4948969 0.86964899 32
-1.727824 -3.1847172 -0.15924597 11
-2.0348852 -3.4944396 -0.13285685 12
-2.3369741 -3.7973723 -0.077519119 12
-2.7230213 -4.1847887 -0.011683762 12
-3.303884 -4.7697067 0.052457452 10
-4.5128627 -5.9932671 0.080345571 12
-5.0286479 -6.5033646 0.2945981 30
-5.0399489 -6.4979 0.58200628 33
-5.1043782 -6.499939 1.4464644 4
-5.0762048 -6.4805059 1.1514093 33
-5.0796261 -6.4924097 0.868837 31
-1.7367313 -3.1759455 -0.15963757 9
-2.0414851 -3.481118 -0.13210535 10
-2.344599 -3.7829795 -0.076983213 13
-2.7285221 -4.1655159 -0.010530829 14
-3.3183198 -4.7554512 0.051822364 9
-4.5350533 -5.9783335 0.079017878 11
-5.0666676 -6.5008507 0.29203868 30
-5.0780158 -6.4953852 0.58031917 33
-5.1460743 -6.5006847 1.4477549 16
-5.1178441 -6.4813747 1.1516415 32
-5.1212964 -6.4932642 0.8680383 32
-1.7456083 -3.1671426 -0.16002852 8
-2.0480251 -3.4677863 -0.13135201 11
-2.3521614 -3.7685721 -0.07644546 11
-2.7339303 -4.1462483 -0.0093747377 13
-3.3292227 -4.7376251 0.051865339 10
-4.5536995 -5.9597769 0.07819581 12
-5.1082568 -6.5016804 0.2891432 30
-5.1196656 -6.4962111 0.57847023 33
-5.1913867 -6.5047226 1.4494054 32
-5.1560183 -6.4785051 1.1516802 32
-5.163043 -6.4939022 0.86723447 31
-1.7544546 -3.1583087 -0.16041893 9
-2.0545077 -3.4544442 -0.130597 11
-2.3596611 -3.7541511 -0.07590574 10
-2.7392468 -4.1269865 -0.0082157254 13
-3.3400507 -4.7197704 0.05191052 11
-4.5757966 -5.9446764 0.076869071 10
-5.1463909 -6.498764 0.28657526 30
-5.1613913 -6.4968185 0.57661635 33
-5.2332454 -6.5050173 1.4506851 33
-5.1977978 -6.4789476 1.1519029 32
-5.2048664 -6.4943171 0.86642551 32
-1.7632697 -3.1494441 -0.16080862 8
-2.0609319 -3.4410911 -0.12984037 11
-2.3705552 -3.743181 -0.076387584 9
-2.7444727 -4.1077309 -0.0070536733 14
-3.3543119 -4.705389 0.051279545 11
-4.594326 -5.9259777 0.076049089 10
-5.1881208 -6.4991655 0.28367007 30
-5.2031927 -6.4972057 0.57475734 33
-5.2751784 -6.5050926 1.4519598 12
-5.2396545 -6.4791689 1.1521204 33
-5.2467628 -6.4945126 0.86561161 32
-1.7724929 -3.1401029 -0.16121715 8
-2.0677853 -3.4272308 -0.12910342 11
-2.3784828 -3.728169 -0.075868785 9
-2.7502108 -4.0878668 -0.0059154034 16
-3.3657117 -4.6867495 0.051296949 11
-4.6137109 -5.9062757 0.075189531 11
-5.2309484 -6.4983006 0.28071451 31
-5.2460947 -6.4963245 0.57284772 33
-5.3217907 -6.5073652 1.4535475 18
-5.2790232 -6.4746389 1.1521008 33
-5.2897582 -6.493434 0.86474705 32
-1.7778332 -3.127784 -0.1602419 8
-2.077538 -3.4172752 -0.12953639 10
-2.3858051 -3.7136927 -0.075324059 12
-2.7552502 -4.0686245 -0.0047472119 15
-3.379858 -4.6722784 0.050668538 11
-4.6321044 -5.8874464 0.074372351 13
-5.2728262 -6.4982529 0.27779925 31
-5.288043 -6.4962635 0.57097864 33
-5.3567004 -6.5000572 1.4540855 29
-5.3210135 -6.4744244 1.1523088 33
-5.3318019 -6.4931793 0.86392295 32
-1.7865419 -3.1188381 -0.16062909 9
-2.0837958 -3.4038792 -0.12877482 10
-2.393065 -3.6992044 -0.074777603 13
-2.7637208 -4.0528336 -0.0044285059 14
-3.3904085 -4.6542988 0.050721169 11
-4.6504335 -5.8685522 0.073556423 13
-5.314775 -6.4979849 0.27487904 30
-5.3300643 -6.4959793 0.56910443 33
-5.3808212 -6.482234 1.4535332 6
-5.3630743 -6.4739876 1.1525118 33
-5.3703094 -6.4892406 0.86307997 32
-1.7917843 -3.1064939 -0.15965086 11
-2.0899949 -3.3904736 -0.12801147 11
-2.4002626 -3.6847024 -0.074229181 13
-2.7685902 -4.0335941 -0.0032547712 13
-3.4044414 -4.6397409 0.050095379 10
-4.6686959 -5.8495941 0.072741926 14
-5.3567944 -6.4974937 0.27195388 30
-5.3685536 -6.4920111 0.56738639 32
-5.4052057 -6.4733295 1.15271 32
-5.4124808 -6.488554 0.86224657 30
-1.8004184 -3.0974996 -0.16003639 11
-2.0961359 -3.3770592 -0.12724638 11
-2.4073973 -3.6701882 -0.073678911 10
-2.7769139 -4.0177827 -0.0029315352 13
-3.4184232 -4.6251345 0.049470663 10
-4.6833019 -5.8271294 0.072438061 13
-5.3988857 -6.4967794 0.26902378 30
-5.4107046 -6.4912949 0.56550288 33
-5.4474063 -6.4724483 1.1529032 33
-5.4547238 -6.4876451 0.86140829 32
-1.8055639 -3.0851319 -0.15905529 11
-2.1022174 -3.3636358 -0.12647945 11
-2.4109411 -3.6522715 -0.072100341 10
-2.7851713 -4.0019555 -0.0026063323 12
-3.4323545 -4.6104798 0.04884702 11
-4.7014198 -5.8080568 0.071626842 14
-5.4410439 -6.4958439 0.26608884 30
-5.4529247 -6.4903555 0.56361449 32
-5.5438538 -6.5134382 1.4609017 29
-5.4933195 -6.4747629 1.1532755 32
-5.4970336 -6.4865103 0.86056513 31
-1.8141234 -3.0760896 -0.15943897 10
-2.1082411 -3.3502035 -0.12571073 11
-2.4179397 -3.6377447 -0.071545839 10
-2.79336 -3.9861116 -0.0022791624 8
-3.4462347 -4.5957761 0.04822439 11
-4.715858 -5.7855034 0.071327269 13
-5.483273 -6.4946842 0.2631489 29
-5.4952121 -6.489193 0.56172127 33
-5.5356679 -6.473423 1.1534585 32
-5.5394115 -6.4851532 0.85971707 31
-1.8191698 -3.0636988 -0.15845495 9
-2.1177254 -3.3401074 -0.12613678 11
-2.4248748 -3.6232071 -0.07098943 10
-2.7979028 -3.9668686 -0.0010949969 10
-3.4564581 -4.5776286 0.048285365 11
-4.73383 -5.7663174 0.070519388 14
-5.5255671 -6.4933014 0.26020426 29
-5.5375671 -6.4878054 0.55982316 32
-5.6142077 -6.4965982 1.4619339 27
-5.5780835 -6.4718571 1.1536366 33
-5.5855236 -6.4869709 0.85887551 31
-1.824585 -3.0508487 -0.15748841 10
-2.1241143 -3.3261395 -0.12538618 11
-2.4322679 -3.6080968 -0.070454657 10
-2.8065262 -3.9503813 -0.00078946352 14
-3.4709101 -4.5621004 0.047634482 12
-4.7526288 -5.7461042 0.069672525 14
-5.5726042 -6.4939842 0.25687045 29
-5.5846767 -6.4884853 0.55771041 32
-5.6577864 -6.4935474 1.4631181 19
-5.6215863 -6.4689589 1.1537638 32
-5.6290679 -6.4840393 0.85797113 31
-1.8295207 -3.0384464 -0.15650094 9
-2.1335139 -3.3159883 -0.12581015 13
-2.4355009 -3.5901949 -0.068865895 10
-2.8108954 -3.9311445 0.00040030479 13
-3.4846215 -4.5472617 0.047015727 11
-4.7741122 -5.7301702 0.06835556 14
-5.6150408 -6.4921303 0.25391561 29
-5.6271749 -6.4866285 0.55580205 32
-5.6930289 -6.4846611 1.4636265 9
-5.6678214 -6.4703045 1.154114 32
-5.6716528 -6.481986 0.85710806 31
-1.8379173 -3.0293212 -0.15688038 10
-2.1393251 -3.3024976 -0.12503546 13
-2.4422345 -3.5756345 -0.068303227 11
-2.8187909 -3.9152632 0.00073647499 13
-3.4946389 -4.5290184 0.047082305 11
-4.7955523 -5.7141476 0.067038894 11
-5.6612177 -6.4934235 0.25061679 29
-5.6734242 -6.4879189 0.55372429 33
-5.7430801 -6.4889832 1.4655652 25
-5.7104392 -6.4680433 1.1542773 31
-5.7143006 -6.4797068 0.85624027 30
-1.8427548 -3.0168979 -0.15589011 11
-2.1486423 -3.2922935 -0.12545735 11
-2.4489074 -3.5610635 -0.067738831 10
-2.8229904 -3.8960345 0.0019318461 13
-3.508234 -4.5140982 0.046466231 11
-4.8169479 -5.6980371 0.065722585 8
-5.703793 -6.491106 0.24765188 29
-5.7160602 -6.4855967 0.55180591 32
-5.7895288 -6.4896965 1.4671392 27
-5.7531219 -6.4655561 1.1544358 32
-5.7607236 -6.4805479 0.85537702 31
-1.8510766 -3.0077267 -0.15626764 11
-2.1543469 -3.2787755 -0.12467939 10
-2.4555168 -3.5464823 -0.067172527 10
-2.8307402 -3.8801374 0.0022724867 10
-3.5181127 -4.4957972 0.046536565 12
-4.8382978 -5.681839 0.064406693 9
-5.7501302 -6.4919081 0.24434203 29
-5.7624707 -6.4863939 0.54971707 31
-5.836062 -6.4901562 1.4687077 27
-5.7995892 -6.4661722 1.1547699 32
-5.8035073 -6.4778023 0.85449934 31
-1.8593659 -2.9985263 -0.15664446 9
-2.1635816 -3.2685189 -0.1250993 12
-2.4620638 -3.5318909 -0.066604316 11
-2.8347709 -3.8609188 0.0034734607 12
-3.527916 -4.4774761 0.046609104 11
-4.8596044 -5.6655531 0.063091159 9
-5.7928381 -6.4891243 0.24136728 29
-5.8089633 -6.4869375 0.5476225 31
-5.8826776 -6.4903631 1.4702705 26
-5.8424034 -6.4632187 1.1549186 32
-5.8500872 -6.4781513 0.85362512 30
-1.8640618 -2.9860661 -0.15565002 7
-2.1691802 -3.2549744 -0.1243183 12
-2.4685488 -3.5172884 -0.066034198 10
-2.8423758 -3.845006 0.0038185716 13
-3.5376439 -4.4591341 0.046683729 12
-4.8771567 -5.6458664 0.062290728 10
-5.8393307 -6.4894323 0.23804653 27
-5.8555398 -6.4872293 0.54552221 32
-5.9293737 -6.4903164 1.4718276 27
-5.8890247 -6.4633398 1.1552417 31
-5.8929992 -6.4749384 0.85273767 30
-1.8722761 -2.9768205 -0.15602499 6
-2.1747212 -3.2414227 -0.12353551 12
-2.4749715 -3.5026777 -0.065462172 12
-2.8499124 -3.8290794 0.0041657686 12
-3.547296 -4.4407701 0.046760559 12
-4.8983593 -5.6294203 0.060976684 11
-5.8821688 -6.4861813 0.23506194 28
-5.8984504 -6.4839592 0.54358363 32
-5.9761491 -6.490016 1.4733791 28
-5.9319663 -6.459919 1.1553807 32
-5.9397311 -6.4747896 0.8518526 30
-1.8804579 -2.9675465 -0.15639931 8
-2.180203 -3.2278655 -0.122751 11
-2.4849882 -3.4913075 -0.065920591 12
-2.8536968 -3.8098724 0.0053747296 12
-3.5531616 -4.419106 0.047527015 11
-4.9157858 -5.6095963 0.060178638 10
-5.9288111 -6.4859943 0.2317304 28
-5.9451766 -6.4837551 0.54147261 31
-6.023005 -6.4894609 1.474925 27
-5.9787369 -6.4595442 1.1556932 32
-5.9865403 -6.4743872 0.85096198 31
-1.8850121 -2.9550512 -0.15540081 11
-2.1856263 -3.2143016 -0.12196457 12
-2.4912975 -3.4766653 -0.065345407 12
-2.8610883 -3.7939327 0.0057263374 12
-3.5626516 -4.4007149 0.047608793 11
-4.9368849 -5.592989 0.058865905 8
-5.9755325 -6.4855528 0.22839332 29
-5.9882135 -6.4800138 0.53952438 31
-6.0699368 -6.4886494 1.4764653 28
-6.0255852 -6.4589148 1.1560001 32
-6.0334301 -6.4737282 0.85006577 30
-1.8931177 -2.9457328 -0.15577316 10
-2.1946359 -3.2039363 -0.12237853 12
-2.4938657 -3.4587889 -0.063734889 11
-2.8684134 -3.7779803 0.006080091 10
-3.5720658 -4.3823037 0.047692657 11
-4.9541841 -5.5730314 0.058070362 10
-6.0223308 -6.4848557 0.22505069 28
-6.0350847 -6.479311 0.53740263 30
-6.1169457 -6.4875841 1.4780002 27
-6.0725117 -6.4580297 1.1563014 32
-6.0803957 -6.4728155 0.84916401 30
-1.8975737 -2.9332185 -0.15477163 11
-2.1999533 -3.1903484 -0.121589 8
-2.5000393 -3.4441407 -0.063155293 11
-2.8793905 -3.7652447 0.0055744052 9
-3.5851488 -4.3671136 0.047089875 11
-4.9714127 -5.5530138 0.057276368 11
-6.0692072 -6.483901 0.22170252 28
-6.0820336 -6.4783525 0.5352754 30
-6.1640306 -6.4862614 1.4795295 27
-6.1233196 -6.460124 1.1567738 31
-6.1274366 -6.4716444 0.84825671 31
-1.9060037 -2.9233878 -0.15516061 12
-2.2056575 -3.1762338 -0.12081826 9
-2.5066395 -3.4289126 -0.0625965 11
-2.8871377 -3.7486162 0.0059063435 11
-3.5950727 -4.347888 0.047147691 11
-4.985651 -5.5286951 0.056962132 10
-6.1171794 -6.4814911 0.21830153 28
-6.1300807 -6.475935 0.53309536 30
-6.2160287 -6.4866877 1.4813588 26
-6.1714258 -6.4575071 1.1570164 31
-6.1755753 -6.4690075 0.8472966 30
-1.9139986 -2.9139967 -0.15553027 11
-2.2108557 -3.1626339 -0.12002504 9
-2.5089734 -3.411062 -0.060978174 10
-2.8942707 -3.7326128 0.0062656403 12
-3.6080356 -4.3326187 0.04654783 10
-5.0027256 -5.5085688 0.056171775 10
-6.1680079 -6.483242 0.21459734 27
-6.1809936 -6.4776812 0.53078651 29
-6.2632685 -6.4848289 1.4828768 26
-6.2185884 -6.4558306 1.1573007 31
-6.2265935 -6.4705276 0.8463822 30
-1.9219611 -2.9045768 -0.15589923 11
-2.2159956 -3.1490293 -0.11923003 10
-2.5149467 -3.3964024 -0.060392261 10
-2.9050891 -3.7197871 0.005763948 13
-3.6171665 -4.3141022 0.046639562 11
-5.0083313 -5.478756 0.056939542 8
-6.215117 -6.4814968 0.21123213 27
-6.2281766 -6.4759274 0.52864218 30
-6.3144188 -6.4859009 1.4847412 26
-6.2696614 -6.4570913 1.1577545 32
-6.2738662 -6.4685602 0.84545797 30
-1.9262295 -2.892015 -0.15489233 11
-2.2210774 -3.1354191 -0.11843312 11
-2.5208576 -3.3817348 -0.059804499 11
-2.9120989 -3.703748 0.0061267018 12
-3.6300111 -4.2987556 0.046042562 11
-5.0328517 -5.4649401 0.055115104 8
-6.2622981 -6.4794912 0.20786148 27
-6.2754302 -6.4739161 0.52649248 30
-6.361814 -6.4835138 1.4862477 26
-6.3169765 -6.4548855 1.1580276 32
-6.3250608 -6.4695225 0.84453118 30
-1.9341152 -2.8825533 -0.15525931 11
-2.2261002 -3.1218054 -0.11763453 12
-2.5267065 -3.3670611 -0.05921489 12
-2.9190412 -3.6876976 0.0064915419 13
-3.6390009 -4.2801905 0.046138287 10
-5.0458817 -5.4414663 0.054849863 7
-6.3018742 -6.4708538 0.20517862 14
-6.3266053 -6.4748316 0.52416521 30
-6.4131336 -6.4840279 1.4880998 28
-6.3682256 -6.4555883 1.1584691 31
-6.3724847 -6.4670248 0.84359568 29
-1.9382846 -2.8699741 -0.15424937 11
-2.231065 -3.1081872 -0.11683398 12
-2.5324931 -3.3523791 -0.058623314 11
-2.9259169 -3.6716378 0.0068583488 10
-3.6479158 -4.2616062 0.046236157 10
-3.9438839 -4.4851408 0.41870862 9
-6.3740101 -6.4722881 0.52200437 32
-6.4606757 -6.4811077 1.4895953 26
-6.415689 -6.4528494 1.158731 31
-6.4238529 -6.4674273 0.84265667 29
-1.9460931 -2.860471 -0.15461439 12
-2.2359717 -3.0945644 -0.11603165 13
-2.5382178 -3.3376908 -0.058029711 13
-2.9327254 -3.6555662 0.0072271824 10
-3.6605768 -4.2461529 0.045643806 10
-6.4214835 -6.4694862 0.51983809 30
-6.5121651 -6.4810629 1.4914353 26
-6.4671059 -6.4529905 1.1591604 31
-6.4714227 -6.4643955 0.84171009 29
-1.9538686 -2.8509398 -0.15497869 10
-2.2445636 -3.0840256 -0.11643428 10
-2.5438802 -3.3229957 -0.05743432 12
-2.9432752 -3.6426065 0.006732583 11
-3.6693511 -4.2275205 0.045745611 9
-3.931951 -4.4314137 0.20997536 16
-3.9475126 -4.4333248 0.41953877 16
-6.4729052 -6.4695663 0.51749289 30
-6.5598493 -6.4776087 1.4929198 25
-6.5186095 -6.4528465 1.1595836 32
-6.5229559 -6.4642353 0.84075898 29
-1.9616106 -2.841382 -0.15534222 9
-2.2493644 -3.0703821 -0.11562884 11
-2.5494814 -3.3082955 -0.056837022 12
-2.9499607 -3.6265013 0.0071050525 11
-3.6818933 -4.2119923 0.045156121 9
-3.9374795 -4.4087296 0.21039593 22
-3.945262 -4.404336 0.42030904 17
-6.5205231 -6.4662294 0.51531553 29
-6.6114988 -6.4770021 1.4947479 25
-6.5701995 -6.4524145 1.1600004 30
-6.5706673 -6.4606667 0.83980137 29
-1.9655945 -2.8287601 -0.15432692 7
-2.254107 -3.0567362 -0.11482149 12
-2.5550196 -3.2935879 -0.056237757 12
-2.9604087 -3.6134822 0.0066129565 11
-3.6943812 -4.1964207 0.044567883 11
-3.9467835 -4.3891683 0.21029741 23
-3.9584351 -4.387886 0.41968819 24
-6.5721073 -6.4657469 0.51295841 29
-6.6632338 -6.4761057 1.4965699 25
-6.6179581 -6.4485893 1.1602397 30
-6.6223593 -6.4599428 0.83883846 28
-1.9732592 -2.8191617 -0.15468848 7
-2.258791 -3.0430875 -0.11401236 12
-2.5643065 -3.2819412 -0.05667603 14
-2.9708116 -3.6004262 0.0061219335 12
-3.7068152 -4.1808043 0.043980837 11
-3.9598951 -4.3726902 0.20967829 27
-3.9715514 -4.3713903 0.41906866 32
-6.6237774 -6.4649763 0.51059496 29
-6.7189746 -6.4779997 1.4987335 25
-6.6697054 -6.4475918 1.1606449 29
-6.6741366 -6.4589272 0.83786923 28
-1.9771435 -2.8065255 -0.15367001 10
-2.2672036 -3.0324688 -0.11441016 12
-2.5697312 -3.2672095 -0.056073308 14
-2.9773178 -3.5842659 0.0064994097 12
-3.7191939 -4.1651459 0.043395042 10
-3.972949 -4.3561649 0.20906037 28
-3.9846087 -4.3548489 0.41845047 29
-6.6755295 -6.4639158 0.50822544 28
-6.7215366 -6.4463043 1.1610438 30
-6.7259951 -6.4576235 0.83689392 28
-1.9847307 -2.7968869 -0.15402955 10
-2.2717817 -3.0188007 -0.11359787 13
-2.5750949 -3.2524717 -0.055468798 14
-2.9876187 -3.5711513 0.0060109496 10
-3.7315183 -4.1494436 0.0428105 11
-3.9937615 -4.3457427 0.20739591 20
-4.001534 -4.3413396 0.41748291 22
-6.7273645 -6.4625626 0.50584978 29
-6.7773986 -6.4477863 1.1616064 30
-6.7779341 -6.456028 0.83591259 28
-1.9885178 -2.7842374 -0.15300822 11
-2.2801092 -3.0081375 -0.11399347 13
-2.5803959 -3.2377295 -0.05486238 14
-2.9940012 -3.5549593 0.0063920021 7
-3.7437878 -4.1336985 0.042227209 11
-4.0106406 -4.3321609 0.20625514 16
-4.0105515 -4.3216286 0.417218 9
-6.7792792 -6.4609203 0.50346804 29
-6.8293996 -6.4459028 1.1619928 30
-6.8339148 -6.4571905 0.83492279 28
-1.9960268 -2.7745593 -0.15336573 11
-2.2845821 -2.9944513 -0.11317796 13
-2.5856354 -3.2229824 -0.054253995 13
-3.0041997 -3.5417874 0.005906105 8
-3.7599111 -4.1209497 0.04094857 10
-4.027483 -4.3185048 0.20511472 13
-4.0392194 -4.3171535 0.41519707 13
-6.831274 -6.4589853 0.50108027 28
-6.8854504 -6.4467602 1.1625419 30
-6.8860221 -6.454998 0.83392888 28
-1.9997144 -2.7618973 -0.15234125 11
-2.2928243 -2.9837437 -0.11357135 9
-2.5908127 -3.2082305 -0.053643644 11
-3.0104587 -3.5255649 0.0062909126 10
-3.7720809 -4.1051054 0.040367246 10
-4.0600019 -4.306448 0.41387779 10
-6.8873143 -6.459795 0.49850869 27
-6.9376187 -6.4442787 1.1629156 28
-6.9421892 -6.455534 0.83292556 28
-2.0071454 -2.7521803 -0.15269673 11
-2.2971916 -2.9700401 -0.11275268 11
-2.5959284 -3.1934752 -0.053031325 12
-3.0205545 -3.5123351 0.0058076382 11
-3.7881255 -4.0922298 0.03908962 10
-6.9394727 -6.457262 0.49610844 27
-7.0018377 -6.4505205 1.1637868 29
-6.9984517 -6.4557505 0.83191544 26
-2.0107353 -2.7395067 -0.15166938 10
-2.3053484 -2.9592886 -0.11314386 13
-2.6009827 -3.178715 -0.052417159 13
-3.0306041 -3.4990704 0.0053254366 12
-3.8041353 -4.0792847 0.037812173 10
-6.9853511 -6.4661465 0.15518004 22
-6.9956965 -6.4574442 0.49352345 28
-7.0501819 -6.444417 1.16398 29
-7.0548081 -6.4556446 0.83089834 27
-2.018455 -2.7292631 -0.15204042 10
-2.310014 -2.9450302 -0.11234146 13
-2.6064169 -3.1633608 -0.051822305 11
-3.0371807 -3.482132 0.0056913495 13
-3.8207102 -4.0654678 0.036506176 9
-7.0386124 -6.4616451 0.1513226 24
-7.0530314 -6.4559393 0.49088249 26
-7.1036062 -6.4396591 1.1642861 29
-7.1082644 -6.4508629 0.82982999 26
-2.0219436 -2.716578 -0.15100986 10
-2.3142147 -2.9313085 -0.11151761 13
-2.6152494 -3.1515362 -0.052248061 10
-3.0471251 -3.4688084 0.0052118897 11
-3.836647 -4.0523815 0.035229385 9
-5.2826872 -5.1233768 0.044291854 11
-7.0869265 -6.4552231 0.14786255 24
-7.1094408 -6.4554672 0.48828366 27
-7.1647959 -6.4501162 0.82879961 26
-2.029217 -2.7067835 -0.15136117 10
-2.318357 -2.9175866 -0.11069196 13
-2.6201251 -3.1367509 -0.05162847 12
-3.0530765 -3.4525068 0.0056054592 11
-3.8485775 -4.0362692 0.034652591 9
-5.2983446 -5.1022148 0.043534696 11
-7.1473169 -6.4574318 0.14333367 23
-7.1659422 -6.454669 0.48567802 26
-7.1763582 -6.4083834 1.1636528 5
-7.2577295 -6.4756212 0.82770979 16
-2.0326066 -2.694088 -0.15032756 11
-2.3263314 -2.9067612 -0.11107814 12
-2.6249392 -3.121963 -0.051006794 12
-3.0589612 -3.4361987 0.0060011744 11
-3.8644333 -4.023056 0.033376992 8
-5.3099246 -5.0780497 0.043307781 10
-7.2801752 -6.5124292 0.13240302 12
-7.194314 -6.4328833 0.48433134 6
-7.5612831 -6.653368 0.82627398 3
-2.0398011 -2.6842568 -0.15067679 11
-2.3303678 -2.8930247 -0.11024922 12
-2.6296923 -3.1071723 -0.050383389 12
-3.0647788 -3.4198828 0.0063989758 11
-3.8722677 -4.0039206 0.033502996 8
-5.3334517 -5.0626612 0.041496396 10
-7.4175406 -6.5695038 0.12109113 11
-9.3098745 -7.8702765 0.82233226 14
-2.0469615 -2.6744006 -0.15102518 11
-2.3343468 -2.879288 -0.10941845 12
-2.6343832 -3.0923781 -0.049757898 11
-3.0745053 -3.4064646 0.0059253573 12
-3.8840294 -3.9876838 0.032930076 9
-5.3408489 -5.0354815 0.041803002 10
-7.474596 -6.5672092 0.11687678 12
-9.34235 -7.8307638 1.2458037 13
-7.4161978 -6.4613419 0.82456666 12
-2.0540869 -2.6645198 -0.15137279 6
-2.3382678 -2.8655505 -0.10858583 13
-2.6429677 -3.0804565 -0.050176859 11
-3.0801985 -3.3901229 0.0063268542 11
-3.8957324 -3.9714067 0.032358646 10
-5.3562007 -5.0141153 0.041053236 10
-7.5114832 -6.5500393 0.11443943 10
-8.3473873 -7.1320543 0.43234468 17
-9.440834 -7.84762 1.2475214 16
-7.4609966 -6.4501953 0.8235234 17
-2.0572906 -2.6517918 -0.15033364 8
-2.3421309 -2.851814 -0.10775131 12
-2.6475458 -3.0656447 -0.04954797 11
-3.0858254 -3.3737762 0.0067303181 10
-3.9073792 -3.9550893 0.031788468 10
-5.3714762 -4.9926977 0.040305197 14
-7.588953 -6.5616398 0.10842848 9
-8.3700514 -7.1002302 0.43123436 15
-9.4169979 -7.7775316 1.244326 19
-9.5323381 -7.8683481 0.81834114 14
-2.0643373 -2.6418753 -0.15067911 11
-2.3498759 -2.8409064 -0.10813111 13
-2.6560369 -3.0536776 -0.049964488 7
-3.0913846 -3.357424 0.0071359873 9
-3.9189696 -3.9387298 0.031219661 11
-5.3866773 -4.9712267 0.039559007 13
-7.6462517 -6.558363 0.10419458 10
-8.4089308 -7.079855 0.42939356 16
-9.4214621 -7.727746 1.2422849 13
-9.5944414 -7.8582392 0.8170194 14
-2.0674415 -2.6291397 -0.14963681 11
-2.3536334 -2.8271577 -0.10729337 13
-2.6605012 -3.0388479 -0.049332082 10
-3.1008935 -3.3439126 0.00666821 8
-3.9305019 -3.9223311 0.030652225 9
-5.4018035 -4.9497004 0.038814545 11
-7.6587429 -6.5232182 0.10389423 9
-8.3823051 -7.0134125 0.4304921 13
-9.6730204 -7.8592024 0.81565446 14
-2.070492 -2.6164072 -0.14859277 9
-2.3612919 -2.816211 -0.10767084 12
-2.6688991 -3.0268359 -0.049746156 13
-3.1063294 -3.3275363 0.0070775747 10
-3.941978 -3.9058912 0.0300861 9
-5.4168544 -4.9281244 0.038071871 11
-7.6751823 -6.4909134 0.1032396 10
-8.4578819 -7.0185547 0.42699793 18
-9.6437168 -7.7757721 1.2466393 14
-9.7476187 -7.856863 0.81428957 13
-2.0734885 -2.6036785 -0.14754695 9
-2.3649442 -2.8024495 -0.10682994 11
-2.6732504 -3.0119903 -0.049110472 14
-3.1157336 -3.3139729 0.0066125393 13
-3.9493332 -3.8865838 0.030225515 9
-5.4318299 -4.9064932 0.037330985 9
-7.687398 -6.4557266 0.10294765 9
-8.5048208 -7.0033789 0.4247871 17
-8.7033672 -7.0794392 1.2076583 17
-8.6960478 -7.0829115 0.81572926 14
-2.0803673 -2.5937057 -0.14788771 10
-2.3725162 -2.7914636 -0.10720515 9
-2.6775398 -2.9971426 -0.048472703 13
-3.1210449 -3.2975729 0.0070255995 13
-3.9566107 -3.867265 0.030367255 9
-5.4467297 -4.8848114 0.036591887 10
-7.7570152 -6.460063 0.097624838 9
-8.5806179 -7.007719 0.42127624 20
-8.7134724 -7.0380411 1.2060566 26
-8.7061453 -7.0414848 0.81464237 34
-2.0832658 -2.58097 -0.14683878 10
-2.3800504 -2.7804508 -0.10757947 7
-2.6817687 -2.9822958 -0.047832966 12
-3.1262887 -3.2811692 0.0074407458 13
-3.9638124 -3.8479345 0.03051132 9
-5.4615536 -4.8630781 0.035854697 10
-7.8144045 -6.455554 0.093373239 8
-8.5945816 -6.9694633 0.42054173 18
-8.7316923 -7.0022373 1.2047813 26
-8.7450886 -7.0196371 0.81348217 25
-2.0904043 -2.5704627 -0.14719433 8
-2.3839216 -2.7661147 -0.10675234 8
-2.6823094 -2.964082 -0.046161294 9
-3.1359925 -3.2668538 0.0069571137 12
-3.9714947 -3.8277664 0.030629814 10
-5.4770374 -4.8402023 0.035082519 10
-7.8811426 -6.4547968 0.088343322 7
-8.6177769 -6.9351416 0.41938439 18
-10.048337 -7.8412914 0.80868042 11
-2.0932021 -2.5577207 -0.14614224 6
-2.3913672 -2.7550623 -0.10712427 10
-2.6864033 -2.9492478 -0.045517147 10
-3.1411097 -3.250428 0.0073760748 12
-3.9744358 -3.8056438 0.031484783 8
-5.4875822 -4.8155851 0.03488344 9
-7.9386911 -6.4495878 0.084078133 8
-8.6480551 -6.9079351 0.41791141 17
-9.1186581 -7.160861 1.2155704 13
-10.081811 -7.8091059 0.8073951 11
-2.0959458 -2.5449839 -0.14508843 9
-2.3947575 -2.7412684 -0.10627532 12
-2.6904356 -2.9344134 -0.044870973 11
-3.1461599 -3.2339981 0.0077971816 12
-3.9813924 -3.7862957 0.031636536 9
-5.5021644 -4.7937088 0.03415221 10
-7.9714098 -6.4274511 0.081976652 9
-8.6990623 -6.8944225 0.41550311 17
-9.1080551 -7.104454 1.2131541 13
-2.1026199 -2.5349336 -0.14542353 9
-2.3980901 -2.7274764 -0.1054244 13
-2.6944058 -2.9195795 -0.044222832 11
-3.151144 -3.2175648 0.0082203746 13
-3.9882722 -3.7669392 0.031790614 8
-5.5125279 -4.7690334 0.033958316 10
-7.9999208 -6.4024096 0.080236912 5
-8.7375784 -6.8723755 0.41365391 22
-9.1181002 -7.0618639 1.2115401 12
-9.976922 -7.6320724 0.80537134 11
-2.1052659 -2.5221915 -0.14436656 9
-2.4013653 -2.7136872 -0.10457164 12
-2.6983154 -2.9047456 -0.043572664 12
-3.1601641 -3.2038462 0.0077658296 12
-3.9950747 -3.7475715 0.031947017 10
-5.5227957 -4.7443371 0.033767164 10
-8.0241947 -6.3745012 0.078860402 5
-8.6924438 -6.7954111 0.41556787 17
-10.28651 -7.7797365 0.80320382 11
-2.1118603 -2.5121088 -0.14469951 8
-2.408628 -2.7025747 -0.10493839 11
-2.7021644 -2.8899133 -0.042920649 14
-3.1650233 -3.187393 0.0081927776 13
-4.0059395 -3.7309084 0.031397879 9
-5.5329676 -4.7196198 0.033578932 8
-8.0316658 -6.3356028 0.078937829 15
-9.0998306 -6.9523783 1.206913 13
-2.1144083 -2.4993629 -0.14363945 8
-2.4117978 -2.6887777 -0.10408229 13
-2.7059517 -2.8750815 -0.042266548 13
-3.1739388 -3.1736262 0.007741034 12
-4.0125976 -3.7115092 0.031558633 8
-5.547215 -4.6975851 0.032856584 8
-8.0305977 -6.2913122 0.079747856 14
-8.8570852 -6.8077869 0.40791112 15
-9.2735338 -7.0148363 1.2114408 16
-2.1209233 -2.4892488 -0.14397025 9
-2.4149103 -2.674984 -0.1032244 11
-2.7096779 -2.8602517 -0.041610479 12
-3.1828055 -3.1598284 0.0072904825 9
-4.0233374 -3.6947849 0.031012774 9
-5.5572042 -4.6728115 0.032673538 9
-8.0293293 -6.247097 0.080565333 9
-8.9543734 -6.82265 0.40340239 16
-9.2156038 -6.9290524 1.2073326 18
-9.4531488 -7.0879536 0.8026824 28
-2.1233726 -2.4765005 -0.14290702 11
-2.4179654 -2.6611936 -0.10236448 13
-2.709235 -2.8427768 -0.039898455 11
-3.1874833 -3.1433394 0.0077228546 12
-4.0298495 -3.6753542 0.031177819 9
-5.5712876 -4.6506929 0.031955481 9
-8.0236521 -6.2002821 0.081754744 11
-9.0560999 -6.8395844 0.39868924 15
-9.6479816 -7.1523046 1.2213384 9
-9.4883585 -7.0603075 0.80148411 27
-2.1298079 -2.4663544 -0.14323556 10
-2.4209635 -2.647408 -0.10150284 14
-2.7128303 -2.8279643 -0.039237916 11
-3.1962447 -3.1294949 0.0072751045 12
-4.0362864 -3.6559157 0.031345129 10
-5.5810952 -4.6258659 0.031777561 9
-8.0346203 -6.1642294 0.081492484 11
-9.2468405 -6.9118013 0.38995823 14
-9.8233833 -7.2112608 1.2257696 13
-9.4386902 -6.9795132 0.80060834 22
-2.1321599 -2.4536037 -0.1421693 9
-2.427995 -2.6362274 -0.10186297 13
-2.7163651 -2.813154 -0.038575411 11
-3.204958 -3.1156194 0.0068286061 13
-4.0426445 -3.6364696 0.031514883 10
-5.5908065 -4.601018 0.031602502 9
-8.053894 -6.1334648 0.080503821 12
-9.3026228 -6.8980236 0.38730666 17
-9.6551266 -7.0560102 1.217613 26
-9.448082 -6.9360247 0.79951948 20
-2.1344581 -2.4408593 -0.14110118 10
-2.4308875 -2.6224351 -0.10099792 13
-2.7198389 -2.7983468 -0.037910998 11
-3.2094543 -3.0990977 0.0072663426 13
-4.0489264 -3.6170166 0.031687081 9
-5.6004224 -4.5761518 0.031430304 8
-8.0561228 -6.0920973 0.080981612 12
-9.2777557 -6.8338966 0.38828987 14
-9.6775503 -7.0197124 1.2164567 25
-9.6489458 -7.010416 0.79766893 15
-2.1410837 -2.4301658 -0.14144248 10
-2.4381781 -2.6106591 -0.10137355 12
-2.7236292 -2.7829306 -0.037264049 10
-3.2184901 -3.0844803 0.0068005323 13
-4.0598545 -3.5993223 0.031123519 9
-5.6148539 -4.5527678 0.030685902 9
-8.0845804 -6.06495 0.079218328 13
-9.41535 -6.8677492 0.38193348 13
-9.6881533 -6.9737186 1.2147839 17
-9.6296148 -6.9462385 0.79663622 19
-2.1432827 -2.4174199 -0.1403712 9
-2.440963 -2.5968614 -0.10050505 12
-2.726979 -2.7681279 -0.036595523 9
-3.2270458 -3.0705268 0.0063581467 13
-4.0659885 -3.5798392 0.031300128 9
-5.6200457 -4.5252485 0.031059325 8
-8.1120148 -6.0392179 0.077504933 13
-9.4200239 -6.821785 0.38157845 20
-9.6589642 -6.9062862 1.2117925 26
-9.5960283 -6.8763285 0.79572767 17
-2.1495116 -2.4072051 -0.14069396 10
-2.4436915 -2.5830684 -0.099634826 11
-2.7302687 -2.7533288 -0.035925031 9
-3.2313566 -3.0539732 0.0068015456 11
-4.0762682 -3.5629292 0.030766785 10
-5.6421051 -4.5080814 0.029273868 8
-8.1436357 -6.0159492 0.075425088 15
-9.4800596 -6.8095074 0.37872148 21
-9.6937218 -6.8776865 1.2111123 28
-9.5706539 -6.811882 0.79479754 23
-2.155705 -2.3969693 -0.14101583 10
-2.4463627 -2.5692811 -0.098762572 8
-2.7334979 -2.7385318 -0.035252631 10
-3.2398057 -3.0399756 0.006362021 11
-4.0991859 -3.5536788 0.028096735 9
-5.6471043 -4.4805269 0.029653013 8
-8.1581211 -5.9822292 0.074816406 12
-9.4244986 -6.7274179 0.38108242 11
-9.7241125 -6.8463659 1.2102798 30
-9.5492525 -6.750246 0.79386193 32
-2.1618629 -2.3867116 -0.14133686 10
-2.4531217 -2.558013 -0.099115014 9
-2.7366667 -2.7237394 -0.034578204 8
-3.2482066 -3.0259485 0.0059236884 11
-4.0542383 -3.5035009 0.036836505 9
-5.6605172 -4.4580956 0.028952777 6
-8.1853199 -5.956152 0.073106468 12
-9.6345778 -6.8043842 0.3714402 15
-9.741498 -6.807291 1.2089922 21
-9.5404596 -6.6964655 0.79288042 33
-2.1638744 -2.373951 -0.14025968 10
-2.4556882 -2.5442219 -0.098239481 10
-2.7439654 -2.7114642 -0.034960091 7
-3.2523346 -3.009366 0.0063726306 11
-4.0132508 -3.4562106 0.044876158 12
-8.203866 -5.9248619 0.072134972 13
-9.7587385 -6.7681675 1.2077086 28
-9.5572977 -6.6579971 0.79178929 27
-2.1699517 -2.3636653 -0.14057845 9
-2.4581981 -2.5304365 -0.097362041 10
-2.7470217 -2.6966648 -0.034282148 7
-3.2606282 -2.995295 0.0059372187 11
-3.9592171 -3.4016824 0.055070758 14
-9.4921608 -6.6229744 0.37756786 10
-9.7801561 -6.7315102 1.2065804 15
-9.5696697 -6.6169682 0.79072255 27
-2.1718664 -2.3509057 -0.13949829 11
-2.4606512 -2.5166576 -0.096482694 10
-2.7500186 -2.6818697 -0.033602118 8
-3.2688723 -2.9811954 0.005503118 9
-3.9518065 -3.3751271 0.057420135 17
-3.9587069 -3.3711035 0.24731547 11
-9.5259953 -6.5946913 0.37588108 12
-9.801446 -6.6947784 1.2054553 14
-9.5775509 -6.5734291 0.78968161 25
-2.1781619 -2.340076 -0.13983059 10
-2.4675543 -2.5047741 -0.096847177 11
-2.7533112 -2.6664627 -0.032939017 8
-3.2774763 -2.9663599 0.005048573 8
-3.9447441 -3.3478355 0.059749603 15
-3.9558492 -3.3462822 0.24841523 17
-9.5867558 -6.5794287 0.37296498 12
-9.8019657 -6.643734 1.203526 19
-9.594965 -6.5330715 0.7885493 24
-2.1799769 -2.327318 -0.1387471 11
-2.4699001 -2.4909921 -0.095964432 11
-2.7561843 -2.6516764 -0.032255113 7
-3.2856193 -2.9522023 0.0046169758 7
-3.9456458 -3.3264031 0.060678422 17
-3.9524016 -3.3223426 0.2495445 18
-4.048635 -3.3696475 0.43071473 16
-9.6465054 -6.5656157 0.3700988 10
-9.8577318 -6.6266403 1.203609 18
-9.5894547 -6.4821329 0.78758484 31
-2.1858916 -2.3169765 -0.13906127 11
-2.4763858 -2.4796429 -0.096309066 9
-2.7589984 -2.6368952 -0.031569123 9
-3.2937131 -2.9380155 0.0041866302 9
-3.946455 -3.3049994 0.06161052 19
-3.9488449 -3.2984595 0.250678 18
-4.0408673 -3.3429749 0.43169013 15
-9.7697392 -6.5284128 1.1987574 30
-9.6316423 -6.4582834 0.78638476 23
-2.1876092 -2.3042207 -0.13797468 10
-2.4786274 -2.4658606 -0.095422983 5
-2.7659941 -2.6245437 -0.031942129 9
-3.3017578 -2.9238007 0.0037575364 10
-3.9514761 -3.2860668 0.061829507 23
-3.9538283 -3.2795358 0.25072598 25
-4.0416546 -3.3212955 0.43192759 16
-9.8096247 -6.5614691 0.36237949 16
-9.8077803 -6.5014544 1.1982515 14
-9.6388655 -6.4147129 0.78536463 20
-2.1934433 -2.2938528 -0.13828653 10
-2.4850256 -2.4544806 -0.095765173 9
-2.7686956 -2.6097579 -0.031252563 9
-3.305469 -2.9071367 0.0042188168 11
-3.9564228 -3.267133 0.062050819 24
-3.9630709 -3.2630434 0.25023109 28
-4.0379992 -3.2972059 0.43254036 15
-9.8695393 -6.5464678 0.35949373 16
-10.046947 -6.5855532 1.2045755 9
-9.6634064 -6.3808508 0.78425795 13
-2.1992412 -2.2834644 -0.13859755 11
-2.4871628 -2.4406981 -0.094875693 9
-2.771338 -2.5949771 -0.03056103 8
-3.313406 -2.8928812 0.0037926435 11
-3.9656134 -3.2506111 0.061557174 29
-3.9722552 -3.2465193 0.24973762 22
-4.0473104 -3.2804406 0.43203992 16
-9.9119997 -6.5214367 0.35739535 12
-10.09402 -6.5623102 1.204344 19
-9.9244995 -6.4768486 0.78188008 9
-2.2008173 -2.2707071 -0.13750637 11
-2.4934726 -2.4292893 -0.09521538 10
-2.7739196 -2.5802033 -0.02986753 7
-3.3169932 -2.8762076 0.0042578578 10
-3.9704185 -3.2316568 0.061782777 29
-3.9813819 -3.2299631 0.24924564 20
-4.0521951 -3.2612362 0.43191394 17
-9.9806862 -6.5106134 0.35410446 13
-9.9259281 -6.4218025 1.196879 18
-2.2065339 -2.2602932 -0.13781506 9
-2.4955056 -2.4155068 -0.094322622 11
-2.7764428 -2.5654361 -0.029172063 8
-3.3205128 -2.8595357 0.0047252774 9
-3.9794855 -3.2150867 0.061292529 29
-3.9948092 -3.2157633 0.24820852 21
-4.0613804 -3.2444215 0.43141699 14
-9.9222012 -6.4300604 0.35657781 13
-9.9153452 -6.3679543 1.1947528 17
-9.9211407 -6.3784552 0.7799235 11
-2.2082961 -2.2470183 -0.13673609 11
-2.502038 -2.4034967 -0.094676673 11
-2.7792413 -2.5500541 -0.028492749 7
-3.3243532 -2.8421519 0.005173862 8
-3.9889436 -3.1976533 0.060779393 28
-4.0042777 -3.1982963 0.24769461 19
-4.0709615 -3.2267315 0.43089679 12
-10.009345 -6.426486 0.35243404 17
-9.9804363 -6.3524551 1.1950752 21
-9.8936911 -6.3133612 0.77905238 24
-2.2097199 -2.2342749 -0.13563985 12
-2.5039642 -2.3897154 -0.093780398 12
-2.781642 -2.5352981 -0.027793169 9
-3.3277373 -2.8254867 0.0056456327 11
-4.0022449 -3.1833704 0.059573054 25
-4.0176105 -3.1839859 0.2466591 17
-4.0844193 -3.2122102 0.43002862 10
-10.077976 -6.4148102 0.34913468 13
-10.035727 -6.3337564 1.1951542 22
-9.9488325 -6.2949438 0.77776629 24
-2.2153096 -2.2238307 -0.13594478 12
-2.5100963 -2.378248 -0.094115078 11
-2.7882829 -2.5228689 -0.028155744 10
-3.3353896 -2.8111532 0.0052277446 10
-4.0155039 -3.1690266 0.058367372 24
-4.0265188 -3.1672709 0.24617225 13
-4.1066341 -3.2023168 0.42841157 10
-10.327559 -6.4988089 0.33761382 8
-10.055627 -6.2961321 1.1940632 20
-2.2166378 -2.2110922 -0.1348455 11
-2.5119188 -2.3644688 -0.093215466 7
-2.7905726 -2.5081124 -0.027452588 10
-3.3386502 -2.7944803 0.0057034492 11
-4.0330906 -3.1569417 0.056442201 22
-4.0441527 -3.1551795 0.24458992 16
-10.365678 -6.4693842 0.33568895 9
-10.227546 -6.3450804 0.77418345 9
-2.2221465 -2.200624 -0.13514811 11
-2.5179629 -2.3529739 -0.093547642 10
-2.7928035 -2.4933634 -0.026747525 9
-3.3461928 -2.7801101 0.0052886009 11
-4.0506506 -3.1447659 0.054516792 17
-4.0661583 -3.1453075 0.24245852 16
-4.1598663 -3.1867833 0.42442283 3
-10.390441 -6.4328279 0.33436781 10
-10.237106 -6.2941189 1.1965275 16
-10.243027 -6.3044443 0.77310997 10
-2.2276194 -2.190136 -0.13544983 12
-2.519681 -2.3391981 -0.092644632 10
-2.7949739 -2.4786224 -0.026040375 10
-3.349329 -2.7634292 0.0057682395 10
-4.0681839 -3.1324983 0.052591085 17
-4.0881529 -3.1353109 0.24032593 14
-10.406212 -6.391572 0.33345258 7
-10.29245 -6.2740288 1.196588 10
-10.262806 -6.2660513 0.77201366 19
-2.2288055 -2.1774004 -0.13434589 11
-2.5256367 -2.3276763 -0.092974305 10
-2.8014174 -2.4661469 -0.026397169 10
-3.3567634 -2.7490218 0.005356431 7
-4.0944767 -3.1246891 0.049222469 14
-10.501829 -6.3913498 0.32890332 6
-10.367122 -6.2706642 0.77039587 11
-2.2341971 -2.1668901 -0.13464528 11
-2.527251 -2.3139038 -0.092067957 11
-2.803478 -2.451406 -0.025686383 7
-3.3641486 -2.7345879 0.0049458742 7
-4.125174 -3.1189876 0.045130014 9
-8.5426502 -5.3590527 0.053150415 10
-10.575319 -6.3791981 0.32535547 6
-10.648616 -6.3565578 1.2045938 13
-2.2355537 -2.1536355 -0.13355303 10
-2.5291021 -2.2995639 -0.091175914 11
-2.8057942 -2.4360485 -0.024991333 10
-3.3718481 -2.7194054 0.0045163035 7
-4.1915989 -3.1301963 0.035232425 6
-8.5643787 -5.3271399 0.051807821 10
-10.681089 -6.3803587 0.32032317 15
-11.174909 -6.5670271 1.2195884 11
-10.5012 -6.2379389 0.76755029 15
-2.2408624 -2.1431012 -0.13385004 8
-2.5349195 -2.2880099 -0.091501534 11
-2.8077345 -2.4213238 -0.024276614 11
-3.3791294 -2.7049193 0.004108429 9
-4.2621469 -3.1440554 0.024626672 7
-5.8634305 -3.9418952 0.022331059 13
-8.5851841 -5.2967615 0.050513208 11
-10.772605 -6.376133 0.31594431 14
-11.182178 -6.5187826 1.2179958 13
-11.179342 -6.5249224 0.76219243 14
-2.246134 -2.1325488 -0.13414609 6
-2.5363724 -2.2742512 -0.090589881 11
-2.8052514 -2.4044123 -0.022492111 10
-3.3863597 -2.690408 0.0037019849 8
-4.2797546 -3.1308897 0.022687793 7
-5.8660669 -3.9142766 0.022785485 14
-8.6058912 -5.2662992 0.049220741 10
-10.868707 -6.3735571 0.3113513 14
-11.386697 -6.5673962 1.2226675 12
-11.20886 -6.4876661 0.76097357 11
-2.2470813 -2.1198246 -0.13303429 7
-2.5421016 -2.2626724 -0.090912938 11
-2.8070657 -2.3897202 -0.021772921 11
-3.3935394 -2.6758718 0.0032967925 9
-4.2884665 -3.1132367 0.022195995 5
-5.8864131 -3.8954878 0.021035612 15
-8.6264992 -5.2357464 0.04793036 10
-10.964929 -6.3703785 0.30674708 15
-2.2522719 -2.1092508 -0.13332796 6
-2.5434506 -2.2489195 -0.089997709 12
-2.8088207 -2.3750386 -0.021051764 10
-3.4006686 -2.66131 0.002892971 8
-4.3015566 -3.0977347 0.020981789 5
-5.8933191 -3.870038 0.020943582 10
-8.6470089 -5.2051067 0.046642184 11
