# .PCD v0.7 - Point Cloud Data file format
VERSION 0.7
FIELDS x y z intensity
SIZE 4 4 4 4
TYPE F F F F
COUNT 1 1 1 1
WIDTH 1380
HEIGHT 1
VIEWPOINT 0 0 0 1 0 0 0
POINTS 1380
DATA ascii
10.038537 -23.274551 1.1148179 6
6.750432 -14.674347 -0.12714171 12
3.944895 -7.5638018 0.62923878 5
10.031291 -23.255911 1.114604 4
6.6365857 -14.696898 -0.13001889 13
3.8824379 -7.5718155 0.62743169 5
9.8271942 -23.222021 1.1071573 6
6.6294203 -14.67826 -0.12883425 12
3.877079 -7.5578108 0.62779868 6
9.7844925 -23.109884 1.1059037 7
6.5139174 -14.695246 -0.13142133 9
3.8182702 -7.5746746 0.62574369 8
9.6624537 -23.289515 1.1008503 4
6.5051241 -14.671889 -0.12993437 7
3.8147626 -7.5653133 0.62599093 11
9.5890932 -23.092754 1.0987086 5
6.3898315 -14.687946 -0.13252467 4
3.7542164 -7.5770388 0.62405413 13
9.4269428 -23.163292 1.0924673 4
6.3812017 -14.664531 -0.13103151 2
3.7524953 -7.5723448 0.62417895 14
6.2644329 -14.67497 -0.13332474 2
3.691967 -7.5836115 0.62223679 10
6.2593527 -14.660885 -0.13242519 3
3.6885905 -7.5742035 0.62248904 12
6.1494536 -14.689229 -0.13592547 5
3.6281154 -7.5849981 0.620543 12
6.1428123 -14.670403 -0.1347208 6
3.6248043 -7.5755653 0.62079769 26
3.56601 -7.5906219 0.61871934 30
3.5627654 -7.5811672 0.61897659 38
5.9021611 -14.663152 -0.1378113 3
3.5055556 -7.6005182 0.61676216 50
8.6652889 -23.111786 1.0640811 5
5.8814292 -14.601673 -0.13386315 2
3.5007873 -7.5863008 0.61715198 39
8.654211 -23.078585 1.0637684 7
5.7690234 -14.617837 -0.13676274 3
3.4357638 -7.5814695 0.6155864 32
8.4748135 -23.090414 1.0569558 7
5.7659006 -14.608358 -0.1361528 4
3.4279814 -7.5577202 0.61624247 19
8.4515781 -23.019108 1.0563052 10
5.6535864 -14.623672 -0.13905972 7
3.3618 -7.5475683 0.61481774 8
8.3047323 -23.129486 1.0503874 5
5.6474714 -14.604669 -0.13783467 11
3.3541837 -7.5237656 0.61548018 7
8.3183756 -23.172365 1.0507661 3
5.535315 -14.619116 -0.1407463 11
3.3003607 -7.5512028 0.61299646 12
8.1374531 -23.176882 1.0438772 5
5.5278363 -14.595309 -0.13920844 11
3.3018508 -7.555974 0.61286271 20
8.1152134 -23.105257 1.0432655 7
5.4158864 -14.60888 -0.14212281 10
3.2448246 -7.5735044 0.610632 32
7.951036 -23.160894 1.0368253 12
5.412962 -14.599338 -0.141505 7
3.2448246 -7.5735044 0.610632 38
7.9466867 -23.146536 1.0367068 22
5.2868252 -14.564253 -0.14132446 5
3.1876767 -7.5906343 0.60839081 40
7.7680354 -23.153051 1.029856 29
5.2839665 -14.554688 -0.14070415 2
3.1862531 -7.5858431 0.60852718 40
7.7496281 -23.090715 1.0293597 30
3.1248541 -7.5881624 0.60669017 36
7.5993176 -23.191864 1.0232564 23
3.1192944 -7.5689592 0.60724109 28
7.6117592 -23.235109 1.0235881 27
3.056756 -7.5659704 0.60554588 13
7.4357982 -23.248737 1.0167745 20
3.0499735 -7.5419178 0.60624111 5
7.4344487 -23.243923 1.0167389 20
2.9877605 -7.5384121 0.60455304 3
7.2573571 -23.251423 1.009882 12
2.9917293 -7.5528688 0.60413194 4
7.1889639 -23.000586 1.0081033 12
2.9334428 -7.563405 0.6020155 18
7.0343451 -23.083632 1.0018334 4
2.9347322 -7.5682335 0.60187382 16
2.875119 -7.5735245 0.5998919 14
6.8876162 -23.199558 0.99573439 6
2.8713524 -7.5590115 0.60032105 14
6.8751378 -23.151138 0.99541914 9
2.8106525 -7.5589943 0.5984832 8
6.7274351 -23.266079 0.98926497 11
2.7809429 -7.561245 0.5974912 4
6.6644716 -23.369324 0.98644269 11
2.7510042 -7.5685883 0.59629542 10
6.5565596 -23.308241 0.98244333 8
2.7212968 -7.5706205 0.59530056 10
6.4521708 -23.240833 0.97859889 5
2.6927514 -7.5774078 0.59415764 10
6.3540521 -23.197321 0.97490925 3
2.6630468 -7.5792294 0.59316015 10
6.264204 -23.187511 0.97141778 2
2.6333532 -7.5809422 0.59216172 9
6.148932 -23.065247 0.96732807 2
2.6025681 -7.577673 0.59131145 14
6.0608454 -23.059557 0.96388072 7
1.7016332 -3.462023 -0.17102307 17
2.571831 -7.5742874 0.59046173 15
5.9771733 -23.073067 0.96053231 11
1.685281 -3.4556963 -0.16922253 17
1.833325 -4.1388054 -0.16053432 4
2.5400677 -7.5659065 0.58976287 15
5.9210477 -23.21332 0.95780361 12
1.6689843 -3.4493062 -0.16742069 15
1.8178592 -4.1471806 -0.16221517 4
2.5094395 -7.5622892 0.58891481 14
5.8608713 -23.338806 0.95496368 15
1.6527421 -3.4428518 -0.16561717 12
1.8012931 -4.1507235 -0.1628837 5
2.477823 -7.553668 0.58821917 8
5.7690959 -23.31735 0.95140761 8
1.6386342 -3.4458234 -0.16618711 13
1.7867916 -4.1637783 -0.16558462 6
2.4483218 -7.5547132 0.58722007 4
5.6755128 -23.285753 0.9478122 6
1.6245141 -3.448746 -0.16675824 12
1.7732331 -4.1815767 -0.16930586 5
2.4198346 -7.5605478 0.58606702 16
5.60007 -23.342003 0.94460684 6
1.6103859 -3.4516189 -0.16733044 12
1.7515235 -4.1610079 -0.16489702 3
2.3903437 -7.5613813 0.58506572 18
5.4501939 -23.025314 0.93982077 27
1.5952578 -3.4496891 -0.16671413 12
1.7329329 -4.1547308 -0.16353565 2
2.3618336 -7.5670137 0.58390892 18
5.3610172 -23.007223 0.93633497 15
1.5811251 -3.4524605 -0.16728789 12
1.9042094 -5.1378841 -0.16249961 4
2.3314085 -7.5627337 0.58306074 16
5.2795529 -23.028088 0.93300623 34
1.5669836 -3.4551823 -0.16786259 12
1.8813297 -5.1272202 -0.16076714 5
2.3010285 -7.5583401 0.5822131 15
5.1869202 -22.989697 0.92944831 43
1.5518924 -3.45309 -0.16724688 13
1.8622816 -5.1358175 -0.16242987 7
2.2707024 -7.5538321 0.5813663 14
1.5377487 -3.4557102 -0.16782314 12
1.8413486 -5.1346693 -0.1623953 11
2.2413218 -7.5541306 0.58036256 12
5.0150666 -22.980732 0.9225989 33
1.5219821 -3.4536369 -0.16723627 13
1.8167325 -5.119092 -0.15984887 17
2.2096548 -7.5496569 0.57945824 11
4.9356093 -23.035589 0.91920167 29
1.5078365 -3.4561522 -0.16781384 13
1.7950082 -5.1129332 -0.15896082 9
2.1803241 -7.5497351 0.57845378 11
4.859087 -23.084539 0.91593945 36
1.4919385 -3.4490659 -0.16600388 11
1.7733386 -5.1066914 -0.15807146 11
2.151011 -7.5497084 0.57744867 11
4.7822742 -23.133242 0.91266137 36
1.477809 -3.4514768 -0.16658217 10
1.751727 -5.1003695 -0.15718067 12
2.1217153 -7.5495758 0.57644296 9
4.6904154 -23.092913 0.90911114 29
1.4611533 -3.4394929 -0.16357476 7
1.7301679 -5.0939665 -0.15628874 13
2.0932488 -7.5542698 0.57527554 10
4.570797 -22.879503 0.90509683 39
1.4470571 -3.441797 -0.16415304 6
1.7086675 -5.0874834 -0.15539527 13
2.063972 -7.5539303 0.57426786 12
4.4896278 -22.897631 0.9017446 23
1.4329534 -3.4440515 -0.1647324 4
1.6880229 -5.0857811 -0.15535563 10
2.0347159 -7.5534859 0.57325971 12
1.5433817 -4.1535978 -0.16387123 2
1.6872225 -5.0809202 -0.15450054 9
2.0339394 -7.5485497 0.57342207 11
4.36306 -22.62398 0.89767009 23
1.5148187 -4.1877079 -0.17139572 7
1.6452696 -5.0724201 -0.15356326 8
1.9762571 -7.5522823 0.5712415 10
4.2030993 -22.663467 0.89102465 22
1.4958545 -4.1756887 -0.16900283 16
1.6262274 -5.0802269 -0.1552363 6
1.9477816 -7.556468 0.57006699 9
1.4755093 -4.1539211 -0.16455084 17
1.6042114 -5.0684843 -0.15348089 4
1.9185843 -7.5556078 0.5690558 8
4.02668 -22.58798 0.88413471 27
1.4574833 -4.1465912 -0.1631791 16
1.5837191 -5.0664043 -0.15343964 3
1.889408 -7.5546436 0.56804419 6
3.9546111 -22.663664 0.88089991 26
1.4388144 -4.1343508 -0.1607762 8
1.5730274 -5.132514 -0.16542739 4
1.8609252 -7.558526 0.56686538 4
3.8687606 -22.640015 0.87748402 29
1.4209235 -4.1268845 -0.15940034 12
1.5503025 -5.1156864 -0.16281599 3
1.8324291 -7.5623083 0.56568468 9
3.7779374 -22.576387 0.87401575 23
1.4037616 -4.124198 -0.15905339 16
1.5323541 -5.1329308 -0.16622466 2
1.8045608 -7.5709486 0.56433403 5
3.6724756 -22.393362 0.87040985 28
1.3866258 -4.1214504 -0.15870607 13
1.7766411 -7.5794926 0.56297994 4
3.5989692 -22.458004 0.86713964 27
1.3695166 -4.118639 -0.15835857 14
1.7486781 -7.5879412 0.56162274 4
1.3524342 -4.1157684 -0.15801072 14
1.7206678 -7.5962944 0.56026214 8
3.5466664 -23.411013 0.8612417 33
1.3353785 -4.1128349 -0.15766239 10
1.6926097 -7.6045513 0.55889827 8
3.4639874 -23.430559 0.85775638 17
1.3183517 -4.1098404 -0.15731382 8
1.6639544 -7.6077461 0.5577029 8
3.3801205 -23.43988 0.85425735 65
1.30053 -4.1068726 -0.15699905 8
1.6333213 -7.6060247 0.55661821 8
3.2872999 -23.404598 0.85055929 13
1.2835561 -4.1037531 -0.15664983 7
1.6041449 -7.6040421 0.55559313 9
3.2040319 -23.418276 0.84705734 33
1.2666124 -4.1005726 -0.15630007 7
1.5749931 -7.6019554 0.55456764 11
1.2496959 -4.097331 -0.15594983 8
1.3464494 -5.1093054 -0.16598171 2
1.5453837 -7.5947924 0.55371648 13
3.0344656 -23.414898 0.84003437 10
1.2333066 -4.098896 -0.15663701 7
1.5158365 -7.5875206 0.55286658 10
1.2169124 -4.1004019 -0.15732521 8
1.3047009 -5.0934191 -0.1641795 7
1.4863477 -7.5801458 0.55201787 10
2.3950176 -18.070971 0.83470505 16
2.3429623 -18.405293 1.4986651 5
1.2000475 -4.096983 -0.15697509 8
1.2857569 -5.1049728 -0.16675264 12
1.4573492 -7.5776415 0.55099344 9
2.3298478 -18.076593 0.83196461 16
2.2753959 -18.395887 1.4953563 3
1.1836598 -4.0983734 -0.15766454 8
1.2618728 -5.06252 -0.15976089 13
1.4292024 -7.5849943 0.54961371 6
2.2678885 -18.121859 0.82919586 14
1.166837 -4.0948353 -0.15731442 10
1.2404171 -5.0444994 -0.15711039 14
1.3990371 -7.5673447 0.54912233 4
2.2176111 -18.321453 0.82629442 15
1.1504573 -4.0961094 -0.15800506 9
1.220318 -5.0411177 -0.15706933 13
1.3724029 -7.5944271 0.54702389 3
2.1585779 -18.421192 0.82342213 3
1.1336753 -4.092453 -0.15765452 9
1.1998544 -5.0327578 -0.156156 16
1.3427056 -7.5815516 0.54635465 2
2.4427161 -23.398645 0.81538355 15
1.1173038 -4.0936127 -0.15834635 8
1.179831 -5.029233 -0.15611368 12
2.0606308 -18.430777 0.1523903 17
2.3599706 -23.419363 0.81182432 78
1.1005641 -4.089838 -0.15799558 8
1.1598353 -5.0256376 -0.15607095 13
2.2736182 -23.384909 0.80833 15
1.083856 -4.0860043 -0.15764433 8
1.1398696 -5.0219707 -0.15602791 14
2.1929193 -23.439981 0.80470866 50
1.0671778 -4.0821114 -0.15729254 10
1.1199342 -5.0182343 -0.15598458 13
2.0438218 -21.570723 0.029393494 17
2.1067719 -23.404921 0.80121523 36
1.0508432 -4.0830393 -0.15798587 9
1.1003344 -5.0193405 -0.15681654 11
1.9664927 -21.574978 0.026109636 15
2.0230074 -23.4095 0.79765767 48
1.0342104 -4.0790281 -0.1576336 6
1.0804424 -5.0154629 -0.15677321 13
1.8888885 -21.573973 0.023005545 12
1.9377356 -23.383825 0.79415327 12
1.0184227 -4.0749197 -0.15724611 7
1.0618322 -5.0163841 -0.15756488 10
1.8151715 -21.572514 0.0200634 11
1.859623 -23.417587 0.79070741 13
1.0010349 -4.0708313 -0.15692759 7
1.0407522 -5.0074987 -0.15668505 6
1.4112393 -13.705929 -0.18952161 2
1.7337496 -21.571146 0.016789436 11
1.771408 -23.416489 0.78696883 6
0.98474073 -4.0715284 -0.15762216 7
1.0211892 -5.0083284 -0.1575191 4
1.361131 -13.703011 -0.19128937 3
1.6564109 -21.57432 0.013490856 9
1.6874127 -23.4149 0.78340614 2
0.9676283 -4.0721989 -0.15835249 7
1.3087566 -13.704989 -0.19352549 4
1.5746419 -21.562378 0.010584712 8
0.95132875 -4.0727787 -0.15904886 7
0.98189032 -5.0294857 -0.16275233 2
1.2574462 -13.666824 -0.19276565 5
1.4970095 -21.555008 0.0076563954 5
0.93522042 -4.078186 -0.16079682 4
1.2075274 -13.663366 -0.19453257 7
1.42049 -21.582321 0.0034061074 8
0.91890013 -4.0786524 -0.16149551 10
1.157216 -13.64478 -0.19521099 8
0.90289801 -4.0888338 -0.16429967 7
1.107036 -13.626018 -0.19588619 9
0.88597226 -4.069644 -0.16078979 4
1.0569916 -13.607076 -0.19655794 11
0.87043202 -4.0992546 -0.16781145 4
1.0070825 -13.587961 -0.19722611 13
0.85436481 -4.1141539 -0.17167944 2
0.95731109 -13.568671 -0.1978907 15
0.90761995 -13.544222 -0.19818479 11
0.85814309 -13.524583 -0.19884127 12
0.80880094 -13.50477 -0.1994943 13
0.80869746 -13.479839 -0.19765276 13
3.3038809 -2.1415944 -0.1804533 0
2.4389427 -6.2189617 -0.1333257 0
3.336493 2.202652 -0.13871121 0
0.61049867 -2.4549859 -0.11896265 0
3.508605 -0.023896843 -0.19747078 0
3.291913 -2.1360989 -0.17250943 2
2.4381034 -6.234715 -0.13568091 0
3.3141747 2.1810012 -0.1224519 0
0.60970533 -2.443706 -0.10898042 0
3.5000899 -0.025262954 -0.19217694 0
3.2878449 -2.134155 -0.17008746 2
2.4367807 -6.2351408 -0.13549197 0
3.3509402 2.2117252 -0.149459 0
0.60924864 -2.4554663 -0.11828208 0
3.4957249 -0.024607791 -0.18969965 0
1.3921374 1.1179008 -0.17980695 0
3.2982683 -2.1413183 -0.17826021 2
2.4362292 -6.2248378 -0.13428724 0
3.343003 2.2079861 -0.14415121 0
0.61083478 -2.4428985 -0.11007774 0
3.499629 -0.022082968 -0.19286907 0
3.2931993 -2.1329179 -0.1742779 0
2.4402382 -6.217721 -0.13617766 0
3.3238602 2.1977611 -0.1309166 0
0.61310738 -2.4415257 -0.11195695 0
3.4995019 -0.017524622 -0.19309545 0
1.3211668 1.0099169 0.016524792 0
3.3025928 -2.1336517 -0.180884 0
2.4279349 -6.1400056 -0.11831295 0
3.3070314 2.1921124 -0.11948097 0
0.61651981 -2.4395819 -0.11461651 0
3.4953709 -0.011065459 -0.19032407 0
1.3297553 1.0295675 -0.011367798 0
3.2997584 -2.1216559 -0.17781878 0
2.4249501 -6.0840788 -0.10905552 0
3.339155 2.2304826 -0.14401484 0
0.62104839 -2.4370282 -0.11809373 0
3.4994526 -0.0028118745 -0.19324148 0
1.3800037 1.1195436 -0.15902472 0
3.3147192 -2.1215615 -0.1877954 0
2.4300122 -6.0452881 -0.10699975 0
3.3367825 2.2425425 -0.14353371 0
0.6267252 -2.4299352 -0.11928189 0
3.4954202 0.0072754226 -0.19027233 0
1.3773121 1.1246295 -0.15702271 1
3.3206532 -2.1115131 -0.19070697 0
2.4297304 -5.9776859 -0.097577691 0
3.3333938 2.2562847 -0.14240491 0
0.63396245 -2.402611 -0.10576868 0
3.5036919 0.019240657 -0.19581366 0
1.3727953 1.1281577 -0.1505003 3
3.2972665 -2.0755913 -0.17119229 0
2.4318464 -5.9089365 -0.089330673 0
3.3355184 2.2774696 -0.14550638 0
0.64150828 -2.398329 -0.11145985 0
3.499697 0.032795865 -0.19262397 0
1.3721119 1.1397409 -0.15604782 4
3.3118429 -2.0676813 -0.17989671 1
3.3266828 2.2916393 -0.14076245 0
0.65033442 -2.3778243 -0.10539341 0
3.5079358 0.048233461 -0.19797707 0
1.3696018 1.1497456 -0.1570642 3
3.3036456 -2.0394449 -0.17122841 0
2.4548986 -5.8093171 -0.089402676 0
3.3398688 2.327683 -0.15215075 0
0.65951341 -2.384181 -0.12172055 0
3.5120733 0.06533356 -0.20029593 0
1.3651971 1.1581043 -0.15359938 2
3.3165655 -2.0256569 -0.17814326 0
2.4744275 -5.7737832 -0.09628737 0
3.3355327 2.3508108 -0.15087569 0
0.67000693 -2.3626556 -0.1168021 0
3.5161743 0.084094144 -0.20245159 0
1.3617809 1.16966 -0.15389943 0
3.3235118 -2.0050342 -0.18026114 0
2.4933019 -5.7279739 -0.10108709 0
3.3236115 2.3696547 -0.1440649 0
0.68113744 -2.3522863 -0.12184548 0
3.5079179 0.10400891 -0.19585514 0
1.3592967 1.1844256 -0.15796006 0
3.3345971 -1.985445 -0.18532622 0
2.5196607 -5.6992574 -0.11286151 2
3.3236792 2.4016829 -0.14620173 0
0.69308752 -2.3220007 -0.11163652 0
3.5118349 0.12589943 -0.19770885 0
1.3591273 1.2050322 -0.16978812 0
3.3464279 -1.964312 -0.19065917 0
3.3130298 2.4261982 -0.14045119 0
0.70562929 -2.3067763 -0.11445951 0
3.5156024 0.14934643 -0.19941998 0
3.3519528 -1.9366617 -0.19113839 0
2.5451741 -5.5388241 -0.10546756 0
3.3110008 2.4610758 -0.14111376 0
0.71877635 -2.2871754 -0.11456513 0
3.519196 0.17424031 -0.20097792 0
3.3615446 -1.9101108 -0.19440687 0
2.5841689 -5.5292506 -0.12743723 0
3.2792025 2.4698875 -0.11984193 0
0.7326594 -2.2786431 -0.12463093 0
3.5103617 0.19977397 -0.19371641 0
1.3365488 1.2352873 -0.14600527 4
3.3646321 -1.8772633 -0.1927439 0
2.6015091 -5.4511514 -0.12672806 2
3.3131478 2.5442314 -0.14716601 0
0.7467581 -2.2466428 -0.11578691 0
3.546221 0.23009838 -0.21782494 0
1.3304416 1.2507802 -0.14418602 4
3.3926785 -1.8602306 -0.20945334 0
3.3014321 2.5769899 -0.14091122 0
0.76176262 -2.2370942 -0.1266185 0
3.5165186 0.25648108 -0.19583869 0
1.3251907 1.2694803 -0.14604676 4
3.3895736 -1.8200531 -0.20283234 0
2.638675 -5.2924447 -0.12632477 0
3.3074768 2.6296773 -0.14781857 0
0.7764473 -2.2005081 -0.11497855 0
3.5192029 0.2867305 -0.19658887 0
1.3155835 1.2807078 -0.1354816 2
3.3972459 -1.7860583 -0.20415831 0
2.669769 -5.2429705 -0.13772607 0
3.2935646 2.6646664 -0.14020765 0
0.79205728 -2.1825013 -0.11979938 0
3.5216088 0.3182098 -0.19708502 0
1.3119583 1.305845 -0.14465606 2
3.4051659 -1.7510911 -0.20544231 1
3.2817342 2.7037606 -0.13424361 0
0.80823225 -2.1677887 -0.12816095 0
3.5236478 0.35079914 -0.1974169 0
1.3065726 1.3288914 -0.14938247 0
3.4168534 -1.717348 -0.20942771 0
2.7051594 -5.0664163 -0.13347483 0
3.2536373 2.7274668 -0.11630249 0
0.82460666 -2.1488366 -0.13347185 0
3.5212939 0.3838928 -0.19462657 0
3.4287117 -1.6826497 -0.2133503 0
2.7380221 -5.0143909 -0.14545333 1
0.84100991 -2.1257887 -0.13555849 0
3.5185702 0.41788548 -0.19161296 0
3.2877209 2.8793826 -0.14833713 0
0.85706925 -2.0949686 -0.13103008 0
3.5195198 0.45336735 -0.19120908 0
1.2826118 1.3897337 -0.14541638 4
3.4271252 -1.5955498 -0.20239985 0
2.7721262 -4.8298817 -0.13899839 0
3.2652481 2.9154625 -0.13532794 0
0.87317884 -2.0638771 -0.1264745 0
3.5444329 0.49395648 -0.20751929 0
1.274111 1.4117376 -0.1446867 3
3.4316301 -1.5543566 -0.20075679 5
2.7886243 -4.7370319 -0.13535213 0
3.2536113 2.9656096 -0.13056338 0
0.89060426 -2.0471087 -0.13549328 1
3.5404546 0.53062886 -0.20375252 0
1.2651944 1.4340611 -0.14360309 2
3.4360378 -1.5125538 -0.19895875 9
3.255229 3.0337481 -0.13603711 0
0.90711051 -2.0190454 -0.13433063 2
3.5198784 0.56477505 -0.18838525 0
1.2558476 1.4566981 -0.14215732 1
3.4440179 -1.4721951 -0.19967318 9
2.8416016 -4.5970616 -0.14644468 0
3.2381861 3.08198 -0.12778127 0
0.9243418 -1.9978954 -0.14002228 1
3.5190642 0.60339457 -0.18694973 0
1.2460294 1.4796184 -0.14036596 0
3.4480972 -1.4292381 -0.19759083 4
2.864717 -4.5199366 -0.14900708 0
0.93950105 -1.9585732 -0.12831175 0
3.5379429 0.64718366 -0.19930077 0
3.4594235 -1.3896294 -0.20075989 0
3.2287402 3.2155969 -0.13066339 0
0.95809138 -1.9475046 -0.14434779 0
3.5200732 0.6833843 -0.1860106 0
1.2314415 1.544338 -0.15876615 0
3.4818585 -1.3549584 -0.2119205 0
2.9110205 -4.3689184 -0.15498471 0
3.2191515 3.2799714 -0.12884402 0
0.97284484 -1.9078648 -0.13228464 1
3.5458875 0.73103774 -0.20331311 0
1.21415 1.5495573 -0.13304627 3
3.4814231 -1.3086056 -0.20666444 5
3.2136314 3.3522675 -0.13049316 0
0.99093246 -1.8925877 -0.14475846 4
3.5430405 0.77231234 -0.20069504 0
1.2027086 1.5731634 -0.12999105 3
3.4958014 -1.269032 -0.21214747 0
2.9458001 -4.2004404 -0.15191031 0
3.2120183 3.432663 -0.1354152 0
1.00569 -1.8561954 -0.13580704 9
3.5396905 0.81396782 -0.19778585 0
1.1908972 1.5969024 -0.12660611 2
3.5099492 -1.2288276 -0.21744049 0
2.9784081 -4.1464849 -0.16389823 0
1.0236592 -1.8402989 -0.14815176 6
3.5318418 0.85479528 -0.19180703 0
1.1834129 1.6366458 -0.14161444 1
3.5121663 -1.1832265 -0.21442199 0
2.9810209 -4.0397997 -0.15069556 0
3.180485 3.5619693 -0.1245122 0
1.0397243 -1.8138603 -0.14961088 4
3.5274377 0.89707112 -0.18836451 0
1.167029 1.6478182 -0.12267697 0
3.4984505 -1.1312373 -0.20017087 0
3.0168111 -3.9932861 -0.16580319 0
3.1797414 3.6517372 -0.13096774 0
1.0568655 -1.7940152 -0.15813875 0
3.546242 0.94749236 -0.20120931 0
3.534739 -1.099214 -0.22139502 0
1.0717664 -1.7638628 -0.15561426 0
3.5328052 0.9877187 -0.19173205 0
1.1476263 1.7219769 -0.14323306 0
3.5160532 -1.0457667 -0.20398986 0
3.0513635 -3.8399065 -0.16556692 0
3.1408679 3.7829669 -0.11592925 0
1.087821 -1.7402728 -0.16017294 3
3.5306377 1.0321743 -0.19030607 0
1.1320943 1.7395287 -0.13095105 2
3.5202813 -1.0012807 -0.20281315 0
1.1012734 -1.7066876 -0.15346754 4
3.531877 1.078287 -0.19129288 0
1.1195519 1.7703117 -0.13300061 1
3.5279155 -0.95808792 -0.20423436 0
3.089138 -3.6982005 -0.1692462 0
3.1172636 3.9460154 -0.1136198 0
1.1198359 -1.6958174 -0.17252183 1
3.5247176 1.1215048 -0.18662035 0
1.1050278 1.7943765 -0.12752855 0
3.5311 -0.91352648 -0.20266581 0
3.1039658 -3.623626 -0.16820633 0
1.1292093 -1.6493417 -0.15030491 1
3.5131576 1.1630235 -0.1790607 0
1.0931661 1.8319945 -0.13614619 0
3.5297625 -0.86789459 -0.19808078 0
3.0771046 4.0897498 -0.099206686 0
1.1464541 -1.6349589 -0.16524756 0
3.5011377 1.2042717 -0.17134726 0
1.0779861 1.8559028 -0.13019681 0
3.5517833 -0.82949668 -0.20994759 0
3.1404493 -3.4900534 -0.1726805 0
3.0647638 4.1777124 -0.098466039 0
1.1599689 -1.6077725 -0.16492212 0
3.5195332 1.2589536 -0.18490887 0
1.064563 1.8900822 -0.13465595 0
3.5453143 -0.78313464 -0.20214796 0
1.1729867 -1.5806715 -0.16428924 1
3.5218718 1.3070271 -0.18751562 0
1.046901 1.9031434 -0.1178422 2
3.5462561 -0.73943675 -0.19966745 0
3.1668127 -3.3501949 -0.1706543 0
3.0430548 4.3662448 -0.10042572 0
1.183625 -1.5475184 -0.15569568 2
3.5160582 1.3514231 -0.18457842 0
1.0316585 1.9299525 -0.11496973 1
3.5465972 -0.69614482 -0.19699013 0
3.1861289 -3.2917914 -0.17512167 0
1.1976399 -1.5267928 -0.16207588 4
3.5098536 1.3954606 -0.1814816 0
1.0179324 1.9672357 -0.12234783 0
3.5826669 -0.66172302 -0.21931326 0
2.9993217 4.5216198 -0.086037159 0
1.2092171 -1.5000862 -0.16048026 4
3.4919119 1.4333733 -0.17030549 0
1.0016419 1.9900122 -0.11580813 0
3.5576327 -0.61388075 -0.1993897 0
3.2100277 -3.1619415 -0.17374313 0
2.9605947 4.567256 -0.065610886 0
1.223423 -1.4824992 -0.170192 0
3.5075898 1.488353 -0.18277085 0
0.98575795 2.0161443 -0.11259198 0
3.560334 -0.57301444 -0.19882977 0
1.2286735 -1.4415555 -0.14837933 0
3.5077536 1.5353521 -0.18449426 0
0.97405934 2.0748229 -0.13979185 0
3.5705724 -0.53426927 -0.20375133 0
3.2341609 -3.0415337 -0.17431009 0
2.9330568 4.7628493 -0.066441536 0
1.2441676 -1.4301108 -0.16532481 4
3.4926407 1.5736065 -0.17574656 0
0.95630604 2.0895779 -0.12619281 0
3.5680897 -0.49375713 -0.20006716 0
3.2471559 -2.9857175 -0.17594242 0
1.2537661 -1.4043701 -0.16234088 10
3.4847984 1.6153405 -0.17212617 0
0.93903041 2.1075494 -0.1160816 0
3.577266 -0.45603424 -0.2046901 0
1.2674181 -1.3901756 -0.17490995 16
3.4693532 1.652123 -0.16329515 0
0.92263579 2.1325469 -0.11269009 0
3.6023519 -0.42115837 -0.22036934 0
3.2663584 -2.8727765 -0.17534053 0
2.8724666 5.0265818 -0.054252744 0
1.273719 -1.359375 -0.16333413 17
3.4537868 1.688027 -0.15454018 0
0.90512323 2.1459749 -0.09944582 0
3.5860136 -0.38099638 -0.20781088 0
1.2817869 -1.3345577 -0.15935683 18
3.4672809 1.7413837 -0.16621745 0
0.8890785 2.174051 -0.099401951 0
3.5773633 -0.34298992 -0.20071685 0
3.2955589 -2.7792931 -0.18392539 0
2.8264081 5.192966 -0.042495131 0
1.286899 -1.3046968 -0.1469965 8
3.4659021 1.7851996 -0.16768348 0
0.87364674 2.2093871 -0.10588276 0
3.5723121 -0.30650482 -0.19632995 0
3.2931526 -2.7175279 -0.17597234 0
2.7843714 5.2289238 -0.0205127 0
1.3013699 -1.2968665 -0.16646254 0
3.4608071 1.82602 -0.16658556 0
0.85727215 2.2330809 -0.10261512 0
3.5791507 -0.27216592 -0.20026326 0
3.3140213 -2.6823652 -0.18588698 0
1.3117383 -1.28113 -0.17363954 4
3.4520836 1.8637097 -0.16296697 0
0.84174669 2.2678752 -0.10909367 0
3.5814188 -0.23829378 -0.20132935 0
3.3183541 -2.6321192 -0.18371284 0
2.7633555 5.4584079 -0.031199098 0
1.3165939 -1.2552119 -0.16429412 2
3.4539988 1.9079136 -0.16704404 0
0.82579803 2.2946959 -0.10922492 0
3.5668659 -0.2041029 -0.19095039 0
3.3182707 -2.5798545 -0.17863047 0
2.7438753 5.5501781 -0.028953791 0
1.323458 -1.2350328 -0.16273487 6
3.4558628 1.951443 -0.17117643 0
0.8096559 2.3134193 -0.1031599 0
3.5766389 -0.17273486 -0.19740593 0
1.3324775 -1.2204525 -0.16902351 7
3.415617 1.9637562 -0.14543796 0
0.79399276 2.3355823 -0.10048473 0
3.5490115 -0.14033806 -0.17832518 0
3.3366792 -2.5001321 -0.18320251 0
2.7084227 5.7408447 -0.027749419 0
1.3383961 -1.2012444 -0.16681492 7
3.4388049 2.0207024 -0.16476488 0
0.77852756 2.3534148 -0.094932914 0
3.5952344 -0.11251714 -0.21002042 0
3.3233132 -2.4424393 -0.16913235 0
2.6771126 5.7942905 -0.014886737 0
1.3451328 -1.1850723 -0.16841125 5
3.4201133 2.0459664 -0.15448439 0
0.76367223 2.3786545 -0.095859885 0
3.5752683 -0.082978211 -0.19637227 0
3.3377151 -2.4129322 -0.1759758 0
1.3514102 -1.1694059 -0.16971266 0
3.4088421 2.0751436 -0.1493398 0
0.7493186 2.4113617 -0.10321617 0
3.5797722 -0.05553735 -0.19960904 0
3.3445923 -2.3786376 -0.17750204 0
2.6459601 5.9850869 -0.016941667 0
1.3599864 -1.1592469 -0.17894459 0
3.3978987 2.1031139 -0.14454639 0
0.73520362 2.4357901 -0.1046983 0
3.5758238 -0.02910006 -0.19709146 0
3.353723 -2.3484609 -0.18086255 0
2.6233547 6.0541091 -0.011219382 0
3.3908341 2.1325626 -0.14244998 0
0.72138333 2.4439378 -0.094329 0
3.5675352 -0.0040128389 -0.19170654 0
3.3453236 -2.3051355 -0.1716243 6
2.6033762 6.1267819 -0.0075392723 0
1.3687475 -1.1284057 -0.17588925 0
3.4012368 2.1744747 -0.15284204 0
0.70832062 2.4833813 -0.10868883 0
3.5755706 0.019651966 -0.1975764 0
3.355628 -2.2804339 -0.17636335 10
2.5650411 6.1339183 0.01388514 0
1.3731076 -1.1151818 -0.17596424 0
3.3951433 2.2015071 -0.15131307 0
0.69568169 2.5104597 -0.11436009 0
3.5628788 0.041805767 -0.18921351 0
3.3582125 -2.2513635 -0.17583525 9
2.5714924 6.2831216 -0.0065933466 0
1.3798633 -1.1073452 -0.18407667 0
3.3929837 2.2299814 -0.15262687 0
0.68367243 2.5130873 -0.1024785 0
3.5418198 0.062139209 -0.17517221 0
3.3664172 -2.2293324 -0.17969251 6
2.5489771 6.3297248 0.0010197163 0
1.3469522 -1.037166 -0.079129815 0
3.4015286 2.2655582 -0.16154969 0
0.67239636 2.527199 -0.10016048 0
3.5371337 0.081153288 -0.17246246 0
3.3669031 -2.2031138 -0.1781987 6
2.5297706 6.3798776 0.0063039064 0
1.3540212 -1.0333833 -0.090721726 1
3.3739336 2.2686722 -0.14437103 0
0.66183281 2.540741 -0.098504305 0
3.5324056 0.098557934 -0.16970885 0
3.3561869 -2.1702013 -0.16882586 0
2.5072682 6.4103518 0.015555382 0
1.3460038 -1.0072734 -0.060136914 1
3.3739603 2.2928567 -0.14690614 0
0.65217209 2.5456982 -0.091558576 0
3.531709 0.11446572 -0.16985095 0
3.3747323 -2.1635449 -0.18124461 0
2.5000246 6.4862118 0.01065731 0
3.3581657 2.3012187 -0.13796079 0
0.64302063 2.5662398 -0.097116113 0
3.5392101 0.12919259 -0.17568231 0
3.3855128 -2.1528502 -0.18837059 0
3.3632367 2.3251948 -0.1438669 0
0.63505375 2.5701249 -0.091534138 0
3.5343592 0.14170645 -0.17303693 0
3.3715854 -2.1247561 -0.17761803 0
3.3592951 2.3389246 -0.1431433 0
0.62801945 2.5734684 -0.086675525 0
3.5295548 0.15251614 -0.17037368 0
3.3736017 -2.1118495 -0.17878628 0
2.4629776 6.599853 0.017367125 0
3.3563099 2.3510985 -0.14290845 0
0.62196892 2.5762746 -0.082557201 0
3.5247464 0.16162583 -0.16779637 0
3.3780558 -2.1032364 -0.18196666 0
2.461679 6.6572413 0.010900497 0
3.3510535 2.3587418 -0.14080024 0
0.61634034 2.5947793 -0.090860724 0
3.5282049 0.16948074 -0.17093074 0
3.3815308 -2.0962791 -0.18466389 0
2.4494808 6.6619463 0.016515493 0
3.3501232 2.36763 -0.14165962 0
0.61238378 2.5924935 -0.085295081 0
3.5234983 0.17512089 -0.16843915 0
3.3772438 -2.0856726 -0.18181884 0
2.4512627 6.7075858 0.009296298 0
3.3404109 2.3660433 -0.13597679 0
0.60931766 2.5937784 -0.083361149 0
3.5271094 0.1795489 -0.1716181 0
3.3823104 -2.0847375 -0.18588519 0
2.4342082 6.6675401 0.0225811 0
3.3415852 2.3716497 -0.13794839 0
0.60751361 2.5904384 -0.07934773 0
3.5266855 0.18194127 -0.17201114 0
3.3795924 -2.0802212 -0.18439901 0
2.4421418 6.7106795 0.012023687 0
3.3406231 2.3726075 -0.13808942 0
0.60613322 2.6028345 -0.087743521 0
3.5180888 0.18202047 -0.16682899 0
3.362258 -2.0668902 -0.17227352 0
2.445857 6.7244201 0.007133007 0
3.3407671 2.3718414 -0.13883817 0
0.60613954 2.6065872 -0.091093779 0
3.5260336 0.18144038 -0.17300034 0
3.3781841 -2.0817041 -0.18474817 0
2.438097 6.6806469 0.015458822 0
3.3386965 2.3665349 -0.13773072 0
0.60734761 2.6057644 -0.092300057 0
3.5299819 0.17881139 -0.17633665 0
3.3760743 -2.0850458 -0.18407881 0
2.4393768 6.6590996 0.015919566 0
3.3377151 2.3595784 -0.13715243 0
0.61017269 2.5881963 -0.082597494 0
3.5175731 0.17337799 -0.16836369 0
3.3764884 -2.0926707 -0.18539155 0
2.4385874 6.6176581 0.019845247 0
3.3443415 2.3568082 -0.14192832 0
0.61303878 2.5984752 -0.094136596 0
3.5216525 0.16730636 -0.1717968 0
3.3690848 -2.0966756 -0.18120718 0
2.4580102 6.6405535 0.0047620535 0
3.3487706 2.3494387 -0.14485061 0
0.61773992 2.5838749 -0.088936448 0
3.5216837 0.15914729 -0.17243361 0
3.3607891 -2.1022673 -0.17650139 0
3.3443089 2.3317893 -0.14109659 0
0.62341249 2.5687354 -0.084499478 0
3.5218201 0.14932901 -0.17301214 0
3.3583035 -2.1148717 -0.1763078 0
3.3507566 2.3212054 -0.14502442 0
0.62983334 2.5611646 -0.086657882 0
3.5260584 0.13793132 -0.17651892 0
3.3649459 -2.1372728 -0.18309116 0
3.341609 2.2946618 -0.13742757 0
0.63714296 2.5530405 -0.089560866 0
3.5221553 0.12447274 -0.17426991 0
3.3570716 -2.1504042 -0.17942071 0
2.491703 6.453764 0.0013406277 0
3.3465788 2.2781291 -0.13988829 0
0.64552069 2.5403395 -0.090222239 0
3.5223773 0.10960974 -0.17483902 0
3.3616683 -2.1760335 -0.18519688 0
2.4985998 6.3775997 0.0049365759 0
3.3491073 2.2571986 -0.14039385 0
0.65469879 2.5311589 -0.094481826 0
3.5267072 0.093219757 -0.17822278 0
3.3384571 -2.1811314 -0.17059171 5
2.5101292 6.3096919 0.0048320293 0
0.66481316 2.5134132 -0.093430281 0
3.5227897 0.075068131 -0.17587531 0
3.3444185 -2.2125404 -0.17778921 3
3.3464878 2.2026782 -0.13517857 0
3.5229626 0.055505525 -0.17627859 0
3.3394127 -2.2370663 -0.17695153 7
3.357985 2.1831918 -0.14155889 0
0.68741739 2.4765515 -0.092847466 0
3.5600379 0.034961861 -0.20226133 0
3.3301158 -2.260092 -0.17316973 10
2.5427916 6.0586605 0.011562228 0
1.3670245 -1.1307759 -0.19315076 0
3.3736012 2.1649849 -0.15073109 0
0.69973385 2.4653974 -0.099312067 0
3.5518386 0.012263695 -0.19680762 0
3.3231928 -2.2872815 -0.17123055 9
2.5751903 6.0329266 -0.0051265955 0
3.3661149 2.1262984 -0.14299512 0
0.71284181 2.4497688 -0.10323346 0
3.5558996 -0.011795217 -0.19972789 0
3.3185999 -2.3185883 -0.17118144 4
2.5962493 5.9648232 -0.010311842 0
3.3727152 2.097327 -0.14531469 0
0.72636312 2.417876 -0.095308185 0
3.5557206 -0.037144598 -0.19967246 0
3.3130326 -2.3511763 -0.17049503 0
1.3439572 -1.1611733 -0.17104995 0
3.3832886 2.0697532 -0.15030658 0
0.74076343 2.4092517 -0.1061188 0
3.5594568 -0.063858047 -0.20237947 0
3.2967343 -2.3760972 -0.16204381 0
2.643523 5.8303566 -0.023795128 0
1.3378814 -1.1764561 -0.16994452 3
3.397753 2.0436349 -0.15795815 0
0.75560099 2.3922808 -0.11113703 0
3.5589314 -0.091730624 -0.20204353 0
3.3084707 -2.42887 -0.17465985 0
2.6602101 5.7368226 -0.023348451 0
1.3301122 -1.1897889 -0.16437304 6
3.4022608 2.0084627 -0.15832198 0
0.77014595 2.3475401 -0.094609261 0
3.5622985 -0.12087192 -0.20440447 0
3.3062387 -2.4709847 -0.17700076 0
1.3259025 -1.2111959 -0.17080748 7
0.78590995 2.3336875 -0.10322142 0
3.5284388 -0.14930061 -0.18103695 0
3.3060741 -2.5173774 -0.1810168 0
1.3174088 -1.2254703 -0.16458941 6
3.4120927 1.9351847 -0.15923679 0
0.80144697 2.3038864 -0.099478602 0
3.5313041 -0.18039876 -0.1830771 0
3.2764492 -2.5371685 -0.1631192 4
2.7257836 5.4880776 -0.034615517 0
1.3110913 -1.2453406 -0.16622543 4
3.4279351 1.9046109 -0.16726792 0
0.81797415 2.2892146 -0.10851264 0
3.558444 -0.21445307 -0.20205235 0
3.2803462 -2.5917971 -0.17075062 3
1.3043888 -1.2656732 -0.16750753 3
3.4262075 1.8607705 -0.16273606 0
3.5565457 -0.24752811 -0.20093417 0
3.2768254 -2.6413517 -0.1729095 0
1.2947761 -1.2811043 -0.16036415 0
3.4280493 1.8186752 -0.16068721 0
0.85006535 2.2280025 -0.1014576 0
3.5543036 -0.28150755 -0.19962788 0
3.2568464 -2.6758709 -0.16284597 0
2.7808452 5.2023315 -0.036019683 0
1.2897108 -1.3076032 -0.16905475 5
3.4298942 1.7759253 -0.15852153 0
0.86794895 2.2197256 -0.11742926 0
3.5599139 -0.3172366 -0.20375347 0
3.2632065 -2.7401819 -0.17301619 0
1.2841419 -1.3346624 -0.1773082 16
0.88301432 2.173197 -0.1009891 0
3.556951 -0.35288039 -0.20200133 0
3.2442136 -2.7794304 -0.16405261 0
1.2733338 -1.3511205 -0.16919529 17
3.4660983 1.7089503 -0.17709303 0
0.90030473 2.1528475 -0.10733283 0
3.5536473 -0.38930064 -0.19994152 0
3.2539256 -2.8524132 -0.17734575 0
2.853545 4.9605188 -0.052919984 0
1.2621977 -1.3677778 -0.16080344 16
3.4677711 1.6641021 -0.1746943 0
0.91729724 2.12835 -0.1104852 0
3.5254502 -0.42277154 -0.18069351 0
1.2529238 -1.3902551 -0.16009438 11
3.4692581 1.6187799 -0.17212367 0
0.93437111 2.1035163 -0.11364448 0
3.5702369 -0.4681384 -0.21203721 0
3.2396381 -2.9681926 -0.1788187 0
2.9023409 4.8011942 -0.064520836 0
1.2454326 -1.4187772 -0.16691411 5
3.4816277 1.5792989 -0.17725873 0
0.95141655 2.078342 -0.11681557 0
3.5657036 -0.50677472 -0.2091068 0
3.2134295 -3.0066259 -0.16512144 0
2.9229665 4.714551 -0.067246675 0
1.2352382 -1.4418769 -0.16548455 0
3.4863544 1.5351132 -0.17700851 0
0.97086209 2.0711021 -0.13687134 0
3.5526404 -0.54444623 -0.20021355 0
3.2005708 -3.0626454 -0.16200209 0
1.22774 -1.4740051 -0.17545998 0
0.98596764 2.0306573 -0.12647665 0
3.5472984 -0.58395708 -0.19664025 0
3.2033753 -3.1403008 -0.17137074 0
2.9704504 4.5573549 -0.077947617 0
1.2144721 -1.4916514 -0.16558969 4
3.5024931 1.4493612 -0.18127739 0
1.0007097 1.9901658 -0.1157949 0
3.5495644 -0.62575221 -0.19839406 0
3.1631427 -3.1655657 -0.14733529 0
1.2029216 -1.5153345 -0.16320765 4
3.5025258 1.4020137 -0.17786372 0
1.0173919 1.9638762 -0.1186713 0
3.5795696 -0.67466116 -0.21945238 0
3.1852381 -3.2732215 -0.1724627 0
3.0107508 4.3907275 -0.083315015 0
1.1909456 -1.5391389 -0.16052783 4
3.5174189 1.3618958 -0.18479395 0
1.0338812 1.9373571 -0.12141907 1
3.5525608 -0.71089172 -0.20104885 0
3.1702423 -3.3350575 -0.16872263 0
3.0273135 4.3030858 -0.083407521 0
1.1795557 -1.5661278 -0.16135776 1
3.5205042 1.3158243 -0.18360901 0
1.0489264 1.9036409 -0.11697173 2
3.5451987 -0.75210142 -0.19641399 0
1.1668279 -1.5901209 -0.1580627 0
3.5269673 1.2714103 -0.18485868 0
3.5613782 -0.80015963 -0.20818591 0
3.1578135 -3.4893661 -0.17614365 0
3.0895989 4.1842284 -0.10750425 0
1.1493499 -1.5983613 -0.135607 0
3.5098431 1.2166538 -0.16972744 0
1.0857366 1.8739643 -0.14631498 0
3.5609088 -0.84432983 -0.20860052 0
1.1430357 -1.6477011 -0.16191292 0
3.5386896 1.1818907 -0.18658996 0
1.1000457 1.8398223 -0.1412282 0
3.5637877 -0.89002186 -0.21162784 0
3.1272066 -3.6266906 -0.17043126 0
3.1255546 4.0239358 -0.11178493 0
1.1326158 -1.6846613 -0.17268682 1
3.5359714 1.1338896 -0.18174887 0
1.1116114 1.7955277 -0.12503433 0
3.5700638 -0.93729395 -0.21715069 0
3.1039948 -3.6860416 -0.16165042 0
1.1177781 -1.7055678 -0.16445374 2
3.540586 1.0890313 -0.1820091 0
1.1265503 1.768258 -0.1264478 1
3.5441382 -0.97413659 -0.20038724 0
1.1050072 -1.7361585 -0.16713178 3
3.5525775 1.0471497 -0.18740356 0
1.1411133 1.7409374 -0.1276046 2
3.5571902 -1.0244256 -0.21095824 0
3.0888636 -3.8591573 -0.17034209 0
3.1782854 3.7955754 -0.11971903 0
1.0896903 -1.7568353 -0.15847766 0
1.1571252 1.7201838 -0.13578415 0
3.5578616 -1.0707434 -0.21302783 0
1.0756428 -1.7839828 -0.15698123 0
3.5750279 0.96311253 -0.19763184 0
3.5462544 -1.112558 -0.20672452 0
3.0545089 -4.0095391 -0.16460407 0
3.2201622 3.6633334 -0.13164091 0
1.0606366 -1.8076094 -0.15168035 0
3.5775537 0.9185555 -0.19687676 0
1.1873145 1.675072 -0.14786351 0
3.5459714 -1.1586823 -0.2083416 0
3.0152576 -4.0485458 -0.14376748 0
1.0460835 -1.8344762 -0.14980543 10
3.5794752 0.87427348 -0.19592178 0
1.1985478 1.6413009 -0.1404705 2
3.5568523 -1.2096782 -0.21779191 0
3.0253394 -4.1758966 -0.16429448 0
3.2250218 3.4876089 -0.11680615 0
1.0300987 -1.8542322 -0.14066601 7
3.5848064 0.83161157 -0.19745755 0
1.2072059 1.6014425 -0.12518358 2
3.5363812 -1.2472183 -0.20539343 0
2.996017 -4.2345519 -0.15209115 0
3.2561095 3.4432929 -0.13129866 0
1.0169268 -1.8910462 -0.14922309 7
3.597672 0.79145062 -0.20421338 0
1.2202897 1.5775573 -0.12827468 3
3.531024 -1.2909672 -0.20363462 0
0.99951684 -1.9033197 -0.13282204 1
3.5615525 0.73897099 -0.17766738 0
1.2329636 1.5537609 -0.13106704 3
3.5329452 -1.3379703 -0.20704687 5
2.9702244 -4.4166369 -0.15605223 0
3.2791946 3.3082259 -0.13193583 0
0.98586547 -1.9398193 -0.14104295 0
3.5974984 0.70585448 -0.20057344 0
3.5307069 -1.3829206 -0.20752406 0
2.960099 -4.5159006 -0.16079652 0
0.96945131 -1.9584429 -0.13164783 0
3.6046579 0.6658839 -0.20392549 0
1.2636671 1.5247712 -0.15862119 0
3.5205507 -1.4236758 -0.20255923 1
2.9427018 -4.6025605 -0.15967762 0
3.2794402 3.1548843 -0.11689639 0
0.95672721 -2.0053775 -0.14991617 0
3.5909703 0.62198979 -0.1931814 0
1.274058 1.4983269 -0.156672 0
3.5177128 -1.4677089 -0.20276296 3
2.9106655 -4.6592793 -0.14590228 0
3.3220801 3.1335328 -0.14116812 0
0.94013715 -2.0234652 -0.14039636 1
3.6174326 0.58736187 -0.20997298 0
1.2803919 1.4633802 -0.14272916 2
3.5146029 -1.5112388 -0.20286858 4
3.3318744 3.0743313 -0.14148974 0
0.92445421 -2.048418 -0.13776588 1
3.614933 0.54741573 -0.20705843 0
1.2896681 1.4377536 -0.13991046 3
3.5075278 -1.5522647 -0.20019245 5
2.8831506 -4.8519363 -0.150846 1
3.3462369 3.0227113 -0.1455313 0
0.90838504 -2.0693741 -0.13177729 0
3.5996022 0.50624573 -0.19561315 0
1.3008406 1.4182447 -0.14452517 4
3.518796 -1.6030928 -0.21060467 0
2.8542504 -4.9155359 -0.14008141 0
3.34742 2.9583471 -0.14027262 0
0.89347076 -2.1010525 -0.13589299 0
3.6124401 0.47095031 -0.20341146 0
1.3103502 1.3962157 -0.14485824 3
0.87815839 -2.1287439 -0.13666594 0
3.6166511 0.43494847 -0.20544469 0
3.4781227 -1.6666425 -0.18683326 0
2.8221936 -5.1014762 -0.1419071 1
3.3177736 2.8034799 -0.10769415 0
0.86236489 -2.1486535 -0.13084388 0
3.6039851 0.39760268 -0.19610929 0
3.521754 -1.7359045 -0.2203095 0
2.7897806 -5.1543155 -0.12794316 0
3.3760486 2.8077888 -0.14457417 0
0.84656811 -2.1643996 -0.12187195 0
3.6114228 0.36412558 -0.20056295 0
1.3384917 1.3380449 -0.15162861 0
3.481447 -1.7528977 -0.19436717 1
3.3841033 2.7606549 -0.14546084 0
0.83152801 -2.1872151 -0.11968148 0
3.6061521 0.33018604 -0.19640005 0
1.347334 1.3203346 -0.15457344 3
3.4776545 -1.7913862 -0.19435275 1
2.7626195 -5.3500347 -0.13435435 2
3.4002697 2.7241652 -0.15248322 0
0.81671596 -2.2096047 -0.11769569 0
3.5963786 0.29698381 -0.18926752 0
1.3542967 1.300385 -0.15320814 4
3.4847484 -1.8359815 -0.20210719 1
2.7482634 -5.4448605 -0.13669884 0
3.399503 2.6729388 -0.14760923 0
0.8026334 -2.2391863 -0.12239587 0
3.6151235 0.26791459 -0.20153999 0
1.3593688 1.278314 -0.14747775 4
3.4740341 -1.8677918 -0.19719815 0
2.6931791 -5.4274793 -0.10045338 0
3.4101205 2.6355398 -0.15111423 0
0.78844112 -2.2607355 -0.12086236 0
3.6294465 0.23927136 -0.2108767 0
1.3665798 1.2620575 -0.14947712 4
2.7123952 -5.6101704 -0.13411987 1
0.77471107 -2.2817948 -0.11966574 0
3.58568 0.20757549 -0.18081307 0
1.3704722 1.2411529 -0.14307868 4
3.4394906 -1.9176338 -0.1779319 0
2.6899176 -5.6758728 -0.12808788 2
3.3793008 2.5187731 -0.12176967 0
0.76129109 -2.2985404 -0.11561477 0
3.6201069 0.18293376 -0.20386863 0
3.4686627 -1.9729719 -0.20144176 0
2.6593306 -5.7134833 -0.11368001 0
3.4153624 2.5127137 -0.14405203 0
0.74881154 -2.334111 -0.12781727 0
3.5923355 0.15576935 -0.18472111 0
3.455966 -1.9970809 -0.19497883 0
3.4342332 2.492635 -0.15425992 0
0.73635715 -2.342119 -0.11825764 0
3.5890934 0.13162531 -0.18235528 0
3.4263875 -2.0069578 -0.17627954 0
2.6149452 -5.8214154 -0.099416137 3
3.4322972 2.4559977 -0.15005946 0
0.7247076 -2.3651245 -0.12178874 0
3.5898278 0.10916365 -0.18265164 0
1.3964064 1.1921419 -0.15861166 0
3.4600897 -2.0616841 -0.20292413 0
2.5863395 -5.8463836 -0.084916949 0
3.429086 2.4209979 -0.14522314 0
0.71361583 -2.375896 -0.11645257 0
3.5903628 0.088276975 -0.1829145 0
1.3976128 1.1747589 -0.15041506 2
3.4388049 -2.0735745 -0.18998384 0
2.581677 -5.9384713 -0.093197703 0
3.431251 2.3935113 -0.14444029 0
0.70328069 -2.386101 -0.11170161 0
3.5948961 0.069067024 -0.18591058 0
1.4012411 1.1631458 -0.15001345 3
3.4286706 -2.0916495 -0.18493104 0
2.5756352 -6.0204086 -0.099645853 0
3.4355824 2.3705134 -0.14542305 0
0.69372803 -2.3996408 -0.11069036 0
3.6158257 0.051795181 -0.20012677 0
1.4058477 1.1548291 -0.15332568 4
3.4227662 -2.11075 -0.18277919 0
2.5856116 -6.1470146 -0.12150037 0
3.4353421 2.3463051 -0.14353359 0
0.68492091 -2.4244151 -0.1195749 0
3.5994444 0.035480015 -0.18900681 0
1.4084889 1.1448801 -0.15217972 4
3.4143064 -2.1255386 -0.17853248 0
2.5903089 -6.2497058 -0.13727224 0
3.4406776 2.3294623 -0.14579618 0
0.67695135 -2.4407842 -0.12291002 0
3.6201506 0.021427413 -0.20321977 0
1.4121594 1.1382021 -0.15477371 3
3.4482315 2.317162 -0.14986575 0
0.66994721 -2.4447296 -0.11774099 0
3.615994 0.0088829817 -0.20053625 0
1.4138191 1.1299951 -0.15289235 4
3.4204302 -2.1663239 -0.18629682 0
2.600771 -6.4332042 -0.16709435 0
0.66382807 -2.4559917 -0.11942661 0
3.6159117 -0.0018609057 -0.2006762 0
1.416482 1.1250638 -0.15478277 4
3.4215157 -2.1814392 -0.1884259 0
2.6000926 -6.4909277 -0.17425394 0
0.65871137 -2.4627411 -0.11876297 0
3.6075459 -0.010626223 -0.19516802 0
1.4186742 1.1210155 -0.1563189 4
3.403199 -2.1784277 -0.17637157 0
2.6009996 -6.5426292 -0.18170953 0
0.6546936 -2.4649215 -0.1158402 0
3.6115556 -0.017538998 -0.19811463 0
1.4172909 1.1131002 -0.14927483 4
3.4130745 -2.1954751 -0.18446922 0
2.6074715 -6.6022658 -0.19335663 0
3.4299026 2.2545664 -0.1344682 0
0.65172178 -2.4664948 -0.11371922 0
3.6155779 -0.022582313 -0.20103991 0
1.4184442 1.110866 -0.15013325 5
3.407104 -2.1969855 -0.1808269 0
2.5983002 -6.5958505 -0.1874373 0
3.3910513 2.2176757 -0.10716188 0
0.64965832 -2.4754329 -0.11844623 0
3.6154857 -0.025593875 -0.20113873 0
1.419091 1.1095865 -0.15062845 4
3.3954844 -2.1911392 -0.17281795 0
2.5990386 -6.611074 -0.19011986 0
3.4325223 2.2497795 -0.13636088 0
0.64894813 -2.4718237 -0.11491573 0
3.5988789 -0.02638917 -0.1899823 0
1.4192233 1.1092207 -0.15078914 4
3.3849821 -2.1833768 -0.16541433 1
2.5883768 -6.5740938 -0.17921948 0
3.3913898 2.2166486 -0.10788584 0
0.64915115 -2.475584 -0.11823547 0
3.5988066 -0.025394136 -0.19010162 0
1.4219146 1.1145127 -0.15886581 5
2.5980732 -6.5957456 -0.18800807 0
3.3593588 2.1937211 -0.085957527 0
0.65061176 -2.4708035 -0.11628997 0
3.5987606 -0.022462564 -0.19020462 0
1.4179764 1.1112524 -0.15008485 5
3.3942516 -2.1843719 -0.17190421 0
2.5856159 -6.5282493 -0.17225862 0
3.3940916 2.2285583 -0.11103714 0
0.65319383 -2.461463 -0.11209774 0
3.6152418 -0.017636927 -0.2015847 0
1.4166117 1.1136248 -0.14922452 4
3.4140482 -2.1930654 -0.18581581 0
2.5867321 -6.496366 -0.1691196 0
3.4073203 2.2484508 -0.12128532 0
0.656663 -2.4594519 -0.1147939 0
3.5986559 -0.01073325 -0.19045734 0
1.4177794 1.1216805 -0.15626574 4
3.3976622 -2.1698024 -0.17325366 0
2.5827157 -6.4354239 -0.15935493 0
3.4363236 2.2843368 -0.14271569 0
0.66129822 -2.4489183 -0.11217499 0
3.6068833 -0.0020575298 -0.19617045 0
1.4138989 1.1234673 -0.15059423 3
3.4025455 -2.1612065 -0.17603123 0
2.5827155 -6.3778677 -0.15230536 0
3.4269595 2.291085 -0.13745856 0
0.6668787 -2.4417372 -0.11338866 0
3.5902202 0.0085397055 -0.18508947 0
1.4125233 1.1309513 -0.15281129 3
3.4050534 -2.1480989 -0.17684877 0
2.5661781 -6.2545605 -0.12731242 0
3.4232318 2.3053079 -0.13626254 0
0.67344165 -2.4339819 -0.11532414 0
3.5818353 0.020880505 -0.17954445 0
1.4091915 1.1369143 -0.15053701 4
3.4085231 -2.1331956 -0.17821491 0
2.5656102 -6.1761503 -0.11744416 0
3.4150219 2.3183639 -0.13215613 0
0.6809417 -2.4295068 -0.1211468 0
3.5898747 0.035093896 -0.18530309 0
1.4068096 1.1461426 -0.15204632 3
3.4094698 -2.1138744 -0.177634 0
2.5630102 -6.0828052 -0.1046474 0
3.4090147 2.3360186 -0.12978506 0
0.68941265 -2.4087207 -0.11530364 0
3.5813091 0.050914563 -0.17976749 0
1.4039419 1.1562241 -0.15318668 3
3.4112396 -2.0929615 -0.1774776 0
2.5465665 -5.9381204 -0.077153563 0
3.4152105 2.3669071 -0.13618982 0
0.69869262 -2.3873904 -0.1100769 0
3.5767884 0.068486542 -0.17698634 0
1.3976287 1.1622002 -0.14578056 2
3.4138703 -2.0704081 -0.177688 0
2.5589182 -5.8793626 -0.077717662 0
3.4136107 2.3936362 -0.13724971 0
0.70874691 -2.3694603 -0.108513 0
3.5762913 0.08770293 -0.17695069 0
1.3952808 1.1763227 -0.15030432 1
3.4206553 -2.0489767 -0.18077207 0
2.5717487 -5.8149147 -0.07783258 3
3.400933 2.4131145 -0.130723 0
0.7195875 -2.3627095 -0.11687124 0
3.5715258 0.10833376 -0.17402852 0
1.3938886 1.1937717 -0.1585114 0
3.421247 -2.0207968 -0.17918825 0
2.5907304 -5.7629876 -0.083365321 3
3.4167039 2.4607158 -0.14457679 0
0.73108572 -2.3476274 -0.11949444 0
3.5789926 0.13097501 -0.17945683 0
1.3760476 1.1842095 -0.1216327 0
3.4364002 -2.0014541 -0.18791628 0
3.3821802 2.4650657 -0.12301409 0
0.74299949 -2.3165157 -0.10997522 0
3.5698147 0.15437531 -0.17344677 0
3.424197 -1.9603807 -0.1767534 0
2.6338685 -5.6557636 -0.096888542 0
3.382581 2.5035691 -0.12633836 0
0.75560898 -2.2966096 -0.11026907 0
3.5728161 0.17974061 -0.17576659 0
2.6609437 -5.6094613 -0.10782146 0
0.76900476 -2.2839181 -0.11732876 0
3.5715122 0.20627661 -0.17506254 0
1.3661339 1.2401853 -0.13901162 4
3.4292345 -1.8948537 -0.17495131 0
3.382863 2.5878263 -0.13350463 0
0.7826913 -2.2630713 -0.11834025 0
3.6112158 0.23738901 -0.20226371 0
1.3608742 1.2584828 -0.14134479 5
3.464366 -1.8821574 -0.19711614 0
3.3636565 2.6148167 -0.12361908 0
0.79695892 -2.2456031 -0.12286377 0
3.5805156 0.2641767 -0.18159735 0
1.3551221 1.277389 -0.1433022 4
3.4464469 -1.8319232 -0.18129659 0
2.7151172 -5.3705087 -0.11170375 0
3.3687534 2.6679342 -0.13122523 0
0.81071866 -2.2086809 -0.11144614 0
3.5701947 0.29363218 -0.17473435 0
1.34885 1.2968575 -0.14490354 3
3.4501069 -1.7951913 -0.18082237 0
2.7377737 -5.2981281 -0.11671782 0
3.353678 2.7033346 -0.12461889 0
0.82570469 -2.190377 -0.11642969 0
3.5719233 0.32539853 -0.17608631 0
1.3434124 1.3196045 -0.15010083 2
3.4539077 -1.7575402 -0.18039441 1
3.3592813 2.7621746 -0.13307023 0
0.84128153 -2.1753855 -0.12493074 0
3.5650921 0.35725889 -0.17162454 0
1.330929 1.3291227 -0.13509464 0
3.4650557 -1.7235574 -0.18515718 0
2.775527 -5.1291308 -0.11913252 0
0.85691178 -2.1561446 -0.13040411 0
3.5661294 0.39110902 -0.17254543 0
3.4726167 -1.6863697 -0.18742907 0
2.7952712 -5.0460095 -0.12101257 1
0.87223399 -2.1290476 -0.12937617 0
3.562676 0.42540598 -0.17044044 0
0.88767833 -2.1016164 -0.12840521 0
3.5628903 0.46119645 -0.17094374 0
1.3187991 1.4214853 -0.17486358 0
3.484014 -1.6074115 -0.18936396 0
2.8437462 -4.8997583 -0.132882 0
3.3197532 2.9565973 -0.12358844 0
0.90318769 -2.0738611 -0.12746966 0
3.5831301 0.50141907 -0.18513751 0
1.2997422 1.4208226 -0.14296567 3
3.4914176 -1.5679312 -0.19159293 0
2.8456783 -4.7764668 -0.11903059 0
3.3217239 3.0243852 -0.13020456 0
0.91947591 -2.0531275 -0.13330126 1
3.586555 0.53998798 -0.18785071 0
1.2889163 1.4403639 -0.13818383 2
3.4875388 -1.5216242 -0.18583548 7
3.3075151 3.0761049 -0.12526691 0
0.93545675 -2.028358 -0.13580883 2
3.57318 0.5760901 -0.17922914 0
1.2777014 1.4600998 -0.13311112 1
3.4871819 -1.4768853 -0.18256247 5
2.8961434 -4.6360912 -0.1329118 0
3.2864053 3.1214585 -0.11542356 0
0.95148396 -2.0032895 -0.13828349 0
3.5675049 0.61436266 -0.17591345 0
1.2683694 1.4860322 -0.13540184 0
3.4941049 -1.435625 -0.18442965 3
0.96409547 -1.9529546 -0.11642992 0
3.5695155 0.65501159 -0.17782128 0
3.5197859 -1.4032646 -0.19940805 0
2.9288924 -4.4602561 -0.13147902 0
3.2693124 3.2490273 -0.11485517 0
0.98336118 -1.9523152 -0.14306939 0
3.5710161 0.69633687 -0.17944002 0
1.2515538 1.5478808 -0.15030503 0
3.5302672 -1.3624651 -0.20355761 0
2.9601378 -4.4031034 -0.14368331 0
0.99862814 -1.9229341 -0.14181411 1
3.5639198 0.7361995 -0.17524886 0
1.2343619 1.5561821 -0.12870502 3
3.5252054 -1.3139 -0.19686139 5
1.0148704 -1.9003643 -0.14745867 4
3.5724905 0.78077185 -0.18173862 0
1.2232728 1.5829997 -0.12958682 3
3.5236187 -1.266977 -0.19252276 0
2.9932311 -4.2339678 -0.14323509 0
3.260782 3.4820054 -0.12883663 0
1.0279691 -1.8602439 -0.13521016 7
3.5644197 0.82145143 -0.17692137 0
1.2117527 1.609966 -0.13013566 2
3.5371256 -1.2266119 -0.19864595 0
1.0445464 -1.8407367 -0.14411056 8
3.5639136 0.86475039 -0.17725039 0
1.2017382 1.6434995 -0.13775742 1
3.5425615 -1.1824421 -0.19921064 0
3.0297446 -4.0764594 -0.14623797 0
3.2166235 3.5970998 -0.11099803 0
1.0596645 -1.8141452 -0.14572537 2
3.5708528 0.91100162 -0.18272936 0
1.1864376 1.6611332 -0.12647331 0
3.5632079 -1.1442809 -0.21036696 0
3.0489621 -4.001575 -0.14883387 0
3.2046781 3.6719394 -0.11006486 0
1.0760248 -1.7941561 -0.15438187 0
3.5731866 0.95650661 -0.18519545 0
3.5522456 -1.0934259 -0.1995734 0
1.0915197 -1.7705415 -0.15930927 0
3.5749767 1.002358 -0.18733668 0
1.1649296 1.7323037 -0.14350295 0
3.5642955 -1.0516534 -0.2048012 0
3.0871112 -3.8554695 -0.15441322 0
3.1718976 3.8149304 -0.10213339 0
1.1053519 -1.7401737 -0.15667498 3
3.5604093 1.0427876 -0.17832875 0
1.1477839 1.7465785 -0.12776804 2
3.5680256 -1.0067775 -0.20437098 0
1.120476 -1.7163182 -0.16115332 2
3.5532584 1.0860193 -0.17450881 0
1.1337986 1.7740347 -0.1263628 1
3.5751874 -0.96331263 -0.206442 0
3.1263797 -3.7169759 -0.16185343 0
3.1491041 3.9822857 -0.10278678 0
1.1370513 -1.6987537 -0.17290735 1
3.553447 1.1323344 -0.17582631 0
1.1194434 1.8014503 -0.12469661 0
3.5619938 -0.9134137 -0.19451058 0
3.1305964 -3.6268537 -0.15358686 3
1.1475078 -1.658574 -0.15829015 1
3.5414157 1.1739554 -0.16879022 0
