# .PCD v0.7 - Point Cloud Data file format
VERSION 0.7
FIELDS x y z intensity
SIZE 4 4 4 4
TYPE F F F F
COUNT 1 1 1 1
WIDTH 1377
HEIGHT 1
VIEWPOINT 0 0 0 1 0 0 0
POINTS 1377
DATA ascii
7.3396368 -9.0123091 0.39008343 0
2.3577509 -0.7838003 -0.16759956 2
2.037611 -2.387429 -0.13483119 1
8.3913937 -2.6568859 -0.0010966063 0
2.433881 0.54724753 -0.20927155 0
7.4890261 -9.0071459 0.34565127 24
2.3623037 -0.75614601 -0.16779077 3
2.0549526 -2.3538692 -0.13807905 3
9.2272825 2.1841712 -0.16552055 0
2.2179322 2.1613789 -0.13100016 0
2.3962774 0.56399041 -0.16950822 0
2.363502 -0.72690779 -0.16421306 12
2.0658145 -2.3095698 -0.13244891 5
9.259469 2.3001976 -0.16940939 0
2.2010067 2.1927867 -0.12566626 0
8.345974 -2.4412642 0.0058230162 5
2.4097311 0.59769249 -0.188555 0
5.4526668 -6.0229712 0.75845039 1
2.3644044 -0.69766921 -0.16049314 10
2.0783434 -2.2686965 -0.12947249 3
9.2430258 2.4046292 -0.16208351 0
2.1949174 2.2411726 -0.13452113 0
8.3680391 -2.3483937 -0.001136899 0
2.4195497 0.63089389 -0.20371413 0
5.4618106 -5.8976755 0.74797785 0
2.3744917 -0.67215562 -0.16764188 4
2.092463 -2.2312121 -0.12925124 0
9.2954922 2.5302572 -0.17043459 0
2.1701677 2.262454 -0.11997581 0
8.3610325 -2.246671 -0.001416564 8
2.4035718 0.65482342 -0.18933344 0
5.4849277 -5.791738 0.73479497 5
2.3812106 -0.64517331 -0.17097592 6
9.1170645 10.161696 0.19348621 0
2.1148663 -2.2072377 -0.14061284 2
9.3181763 2.6491356 -0.17185628 0
8.3668814 -2.1491158 -0.0048924685 0
2.3936749 0.68099493 -0.18216968 0
5.5384488 -5.7236328 0.71494663 8
2.3813424 -0.61571282 -0.16679502 11
2.1303859 -2.1728215 -0.14303565 3
8.3244209 -2.0389891 0.0026896 2
2.3426197 0.68977427 -0.12738359 0
2.3811748 -0.58638555 -0.16242838 10
2.1409848 -2.1316969 -0.1392529 4
9.3494806 2.8871367 -0.17103255 2
2.1349981 2.391463 -0.12947249 0
8.3325214 -1.9434071 -0.0014066696 3
2.3762999 0.73407406 -0.17109704 0
5.7280998 -5.6821084 0.65716982 8
2.3902898 -0.5603354 -0.16898537 2
2.1555083 -2.0972445 -0.14121974 7
9.2796793 2.9784226 -0.15114248 0
8.3204603 -1.8435903 -0.00083351135 0
2.3750308 0.76383817 -0.17449403 0
2.3959367 -0.53322232 -0.17168415 0
2.1672239 -2.0595644 -0.13991487 5
9.27355 3.0911732 -0.145643 0
8.3213587 -1.7478626 -0.0033243895 2
2.3703587 0.79213375 -0.17410469 0
7.3316865 -7.1612535 0.27906513 0
2.3980622 -0.50516087 -0.17054427 0
5.8557992 6.9862747 0.8730433 0
2.1853096 -2.0317035 -0.14741683 0
6.1724634 2.0467603 0.55369985 2
8.3115978 -1.6505538 -0.0030713081 0
2.3685238 0.82181364 -0.17720485 0
7.3579578 -7.0293713 0.26358008 12
2.4128239 -0.48088789 -0.18404698 0
2.2006273 -2.0006394 -0.15162027 5
6.1450071 2.1098442 0.56275928 2
2.056005 2.5182927 -0.10416448 0
8.2909813 -1.5524346 -0.00029456615 3
2.3756487 0.85612571 -0.19100869 0
7.2821703 -6.795372 0.27190495 0
2.4046738 -0.45045194 -0.17142999 0
2.208149 -1.9602833 -0.14639604 6
2.0216267 2.522368 -0.077676177 0
8.2738752 -1.4567404 0.0019282103 0
2.3548722 0.87602258 -0.17218018 0
7.2815843 -6.6451335 0.26323783 11
2.4123516 -0.42462367 -0.17723548 2
5.3320503 6.7279234 1.0046362 0
2.2270956 -1.9357979 -0.15620506 10
6.043427 2.2145274 0.59143925 0
2.0295739 2.6079464 -0.11105084 0
8.2891378 -1.3683636 -0.0031974316 1
2.3827183 0.92184204 -0.21095204 0
7.2674627 -6.4860272 0.25819135 0
2.4132524 -0.39740723 -0.17543685 1
2.2382708 -1.9022012 -0.1564281 7
5.9879456 2.262413 0.60696435 0
1.999007 2.6185565 -0.089930892 1
8.2600994 -1.2734758 0.0023443699 8
2.3192599 0.91694051 -0.14167655 0
7.4557204 -6.5275931 0.20634508 1
2.4138 -0.37051192 -0.17351878 1
2.2512407 -1.8719664 -0.15945661 3
5.8740997 2.2828224 0.63531208 8
1.9834828 2.6588857 -0.09030056 0
2.3224962 0.9486984 -0.15145063 0
7.6053391 -6.529357 0.16340578 11
2.4206049 -0.34533769 -0.17886722 0
2.2636473 -1.8419971 -0.16217744 0
5.8054457 2.3204665 0.65383482 10
1.9767454 2.7180932 -0.10385656 0
8.3092403 -1.1055366 -0.011165977 2
2.3284361 0.98218209 -0.16471434 0
7.8453441 -6.6131558 0.099338412 0
2.4172621 -0.31855044 -0.17292988 0
2.2831511 -1.8210995 -0.17403543 0
5.7770038 2.3745387 0.6633935 17
1.9465771 2.7270732 -0.082798243 0
8.2960835 -1.0180115 -0.0088740587 0
2.3222227 1.0082017 -0.16359103 0
7.8897405 -6.5149393 0.08127296 0
2.4234548 -0.29402876 -0.17802882 0
2.2893715 -1.7858725 -0.16981637 0
5.7528176 2.4295495 0.67205501 2
8.4026518 -0.9471128 -0.034674048 0
2.3189032 1.0357026 -0.16594374 0
2.4195166 -0.26827061 -0.17179906 0
2.2949061 -1.7511629 -0.16523206 10
5.7329516 2.4853837 0.67970133 14
8.9825764 -0.92870003 -0.17193472 0
2.2948525 1.0492659 -0.14343107 0
7.8639312 -6.2282543 0.073260903 0
2.4251351 -0.24453643 -0.17665792 0
2.2998078 -1.7169917 -0.16025186 15
5.4415159 2.4025989 0.74667251 0
1.9073446 2.8634586 -0.096119285 0
9.0977974 -0.85267186 -0.19960952 0
7.8780146 -6.1157246 0.063538074 0
2.4271762 -0.2207709 -0.17768288 0
2.3147025 -1.6944944 -0.167678 10
1.8800538 2.873863 -0.078167081 0
9.0764933 -0.76377273 -0.19499004 10
2.3403165 1.1379826 -0.21167171 0
2.4223742 -0.19677752 -0.17110348 0
2.3184061 -1.6613302 -0.16200113 0
5.3304191 2.4635408 0.77711463 0
1.8628693 2.9074554 -0.075811863 0
9.1123886 -0.68220735 -0.20373631 8
2.2989202 1.1374892 -0.16802382 0
7.8220086 -5.8343301 0.065122604 0
2.4239044 -0.17415316 -0.17190266 0
2.3322732 -1.6396359 -0.16882062 0
5.2733355 2.4898589 0.79247874 15
1.858428 2.9726329 -0.093898892 0
9.1328106 -0.6010747 -0.2088747 0
2.2953722 1.162697 -0.17026877 0
7.850409 -5.7472696 0.052932024 0
2.4318299 -0.15272041 -0.18006134 0
2.3402195 -1.6130177 -0.16886604 0
5.2640047 2.540437 0.79752362 10
1.8400326 3.0012827 -0.089184403 0
2.286114 1.183136 -0.16552246 0
2.4130771 -0.12969226 -0.15820682 0
2.3530385 -1.5922799 -0.17507875 1
5.2804718 2.6043203 0.79695088 0
1.820498 3.0253062 -0.082157493 0
9.1322422 -0.44273093 -0.20919681 5
2.2713029 1.1985178 -0.15385294 0
7.849781 -5.5396805 0.043144822 0
2.4272082 -0.10994225 -0.17365396 0
2.3542435 -1.561612 -0.16804254 3
1.8043795 3.0568442 -0.080395937 0
9.1599741 -0.36867589 -0.21571994 1
7.8552237 -5.4471207 0.037227154 0
2.4510839 -0.091050863 -0.20026267 0
2.3575401 -1.5343918 -0.16386282 4
1.7670786 3.0262821 -0.041828394 0
2.4351258 -0.070755228 -0.18181837 0
2.371295 -1.5182039 -0.17244828 5
9.7073565 5.4288654 -0.13599038 0
1.7792265 3.1346684 -0.08739078 0
7.8546629 -5.2666359 0.028899431 0
2.4355547 -0.052020848 -0.18202543 0
4.2269726 7.2197819 1.3834727 0
2.3732672 -1.4925612 -0.16764939 2
1.7575607 3.1438546 -0.074115276 6
7.8923831 -5.210577 0.015766144 0
2.439183 -0.034171186 -0.18588412 0
4.1502738 7.1913261 1.4049675 0
2.382978 -1.475354 -0.17238677 0
1.7408335 3.1646948 -0.068640351 1
2.2207289 1.2785901 -0.12133896 0
7.9040871 -5.1396003 0.0090564489 0
2.4294653 -0.016946981 -0.1746769 0
2.3636098 -1.4343302 -0.14392781 0
1.7355723 3.2182186 -0.082862616 0
2.1773601 1.2629585 -0.072449088 0
2.4362364 -0.00073900749 -0.1821115 0
2.389117 -1.433579 -0.16787946 1
9.7523575 5.8215857 -0.12495029 0
1.716218 3.2252588 -0.070953965 0
2.2551272 1.3504162 -0.17539096 0
7.8882928 -4.983727 0.006149888 0
2.4329762 0.014604537 -0.17826593 0
4.012414 7.2582932 1.4554774 0
2.3912363 -1.4140939 -0.16516268 4
1.7056653 3.2567005 -0.073898315 0
2.2371383 1.3544282 -0.15781581 2
7.9171581 -4.9381347 -0.0041159391 0
2.4230156 0.028840613 -0.1668911 0
2.3984771 -1.4003528 -0.16879106 6
1.6921818 3.2748563 -0.070132613 0
2.2277443 1.3646166 -0.15081394 0
7.9154501 -4.8762689 -0.0064362288 0
2.4163134 0.042063229 -0.1592263 0
2.4051638 -1.3875182 -0.17212927 6
1.6846826 3.3091779 -0.076378345 0
9.1957073 0.17695279 -0.22113323 0
2.2160907 1.3713468 -0.14065123 0
7.9236894 -4.8257146 -0.010999322 0
2.436048 0.054976754 -0.1815083 0
2.4054689 -1.370959 -0.16852391 6
1.6756295 3.3344138 -0.078340888 0
9.1607628 0.21966352 -0.21254706 0
2.2237816 1.3942465 -0.15470052 0
2.4326015 0.066295952 -0.1775291 0
2.4051578 -1.3554258 -0.16464853 9
9.821003 6.2257099 -0.11733162 0
1.6615472 3.3376851 -0.069191575 0
9.135479 0.25840136 -0.20615685 0
2.2184591 1.4038923 -0.15190792 0
2.4423721 0.077020884 -0.18852913 0
2.4130669 -1.34784 -0.17047524 10
1.6523438 3.3529401 -0.067663193 0
9.1782312 0.29551989 -0.21586597 0
2.2216482 1.420036 -0.15961552 0
7.9551234 -4.7077584 -0.024828196 0
2.4488049 0.086627312 -0.19579804 0
2.4087105 -1.3320783 -0.16267192 10
1.6384387 3.3461335 -0.055108309 0
9.191781 0.32776198 -0.21877766 0
2.2146502 1.4252069 -0.15396464 0
7.9007831 -4.6365156 -0.012743831 0
2.4486055 0.094791286 -0.19559944 0
2.4184582 -1.3288705 -0.1712569 10
1.6400676 3.3896856 -0.071196198 0
9.1810808 0.35498661 -0.21590912 0
2.2108569 1.4318084 -0.15205455 0
7.9305143 -4.62468 -0.021354079 0
2.4451346 0.10161483 -0.19165027 0
2.4188712 -1.3198435 -0.16954339 10
9.189908 0.3787708 -0.21772015 0
2.2262471 1.4550943 -0.17419958 0
7.9458413 -4.6083341 -0.026005745 0
2.4482992 0.10771415 -0.19520795 0
2.4187052 -1.3119799 -0.1675266 8
9.1648502 0.39660627 -0.21148729 0
2.2077377 1.4444647 -0.1524272 0
7.9424782 -4.5851159 -0.025776386 0
2.4316266 0.11132792 -0.17634869 0
2.420929 -1.3075249 -0.16855884 8
1.6270349 3.4220212 -0.072127819 0
9.1156244 0.40892434 -0.19965994 0
2.2057409 1.447981 -0.15135181 0
7.9575567 -4.5787511 -0.029916406 0
2.4481285 0.1159232 -0.19489431 0
2.4226336 -1.304229 -0.16926122 7
9.173563 0.42191222 -0.21297181 0
2.2044182 1.4504064 -0.15056264 0
7.9332252 -4.5526719 -0.023843884 0
2.4481142 0.11826549 -0.19476819 0
2.4237151 -1.302151 -0.16969419 7
1.6241685 3.4339509 -0.073103666 0
2.203716 1.4517643 -0.15008903 0
7.9355989 -4.5487571 -0.024198413 0
2.4514554 0.11960564 -0.19841421 0
2.4301906 -1.3057473 -0.17649281 7
1.6249459 3.4387269 -0.074684501 0
9.2171431 0.43095136 -0.22253799 0
2.2089539 1.4571738 -0.15667963 0
7.9400129 -4.5510817 -0.024843574 0
2.4283526 0.11794914 -0.17217457 0
2.4242513 -1.3015922 -0.16959321 7
1.6226408 3.4255235 -0.067842484 0
9.2271061 0.42809525 -0.22451687 0
2.2043004 1.4512885 -0.14999163 0
7.9380322 -4.5546999 -0.023660779 0
2.4616187 0.11889799 -0.20951331 0
2.4236522 -1.3031402 -0.16908872 8
9.1643648 0.41721252 -0.20934093 0
2.2082005 1.4519869 -0.1537956 0
7.9421449 -4.5673018 -0.023769498 0
2.4386318 0.1148972 -0.18330908 0
2.425467 -1.3080842 -0.17164111 7
9.2330589 0.40852347 -0.2251482 0
2.207428 1.4465215 -0.15112948 0
7.9524341 -4.5887818 -0.025036097 0
2.4454887 0.11166289 -0.19079268 0
2.4237487 -1.3119804 -0.17054427 8
9.1901541 0.39004806 -0.21450555 0
2.2099481 1.4425457 -0.1521343 0
7.95225 -4.6087089 -0.023627639 0
2.4490974 0.10708757 -0.19453549 0
2.4244475 -1.3192458 -0.17250359 9
9.1862621 0.36935562 -0.21312284 0
7.9499192 -4.6322861 -0.02130127 0
2.4461401 0.10092113 -0.1907953 0
2.4215918 -1.3253974 -0.17085695 10
1.6458788 3.3987348 -0.073142648 0
9.2165508 0.34582317 -0.21969557 0
2.2114451 1.4263163 -0.14831018 0
7.9371719 -4.6540999 -0.016325235 0
2.4465098 0.093809135 -0.19081891 0
2.4181836 -1.3326535 -0.16891754 10
1.644433 3.3551052 -0.05709362 0
9.2323456 0.31745157 -0.22279191 0
2.2210681 1.4241141 -0.15707922 0
7.9961925 -4.7274075 -0.028754473 0
2.4501965 0.085750379 -0.19460332 0
2.4171364 -1.3432539 -0.17006063 11
1.6560681 3.3532667 -0.065145254 0
9.2432947 0.28484175 -0.22483468 0
2.4572597 0.076695137 -0.20208371 0
2.4096441 -1.3503546 -0.16423714 10
9.8433466 6.2488189 -0.11121464 0
1.6665711 3.3420956 -0.069253087 0
9.2494221 0.24804015 -0.22551155 1
2.4576709 0.066198938 -0.20209777 0
2.4132664 -1.3677384 -0.17146969 6
1.6769695 3.3259134 -0.071682811 0
9.2554731 0.20721535 -0.22624755 0
2.2452679 1.4035128 -0.17496777 0
7.9746108 -4.8488889 -0.015534043 0
2.4580758 0.054667599 -0.20209002 0
2.4133751 -1.3839403 -0.1750139 6
1.6910059 3.3174231 -0.07943809 0
2.2218401 1.3653339 -0.14038801 0
7.9874339 -4.9123082 -0.015392542 0
2.4419053 0.04170515 -0.18332672 0
2.4070802 -1.3963934 -0.17166281 7
1.7022929 3.295573 -0.080599427 0
7.993721 -4.9764948 -0.013384461 0
2.4389293 0.028216746 -0.17952228 0
2.4030781 -1.4122314 -0.17131448 5
1.712043 3.2646015 -0.077483535 0
2.2603619 1.3616629 -0.17796922 0
7.9977574 -5.0437679 -0.010424733 0
2.4392512 0.013824545 -0.17939115 0
2.3927605 -1.4241477 -0.16406512 2
1.7266068 3.2456164 -0.081840754 0
2.2405238 1.3238844 -0.14720416 0
2.4395335 -0.0014724286 -0.17918861 0
2.3933616 -1.446695 -0.16966677 2
1.7421227 3.2259769 -0.0865345 0
2.2429237 1.3044274 -0.14404619 0
7.9944782 -5.1851287 -0.00063240528 0
2.4464002 -0.017781137 -0.18638527 0
4.0814943 7.1257563 1.433421 0
2.3904519 -1.4677796 -0.17163897 0
1.7558284 3.1973615 -0.086709142 1
2.2483666 1.2865138 -0.14449131 0
7.9674435 -5.244391 0.011146665 0
2.4398749 -0.034820523 -0.17857647 0
4.2019525 7.2499757 1.4088225 0
2.3841074 -1.4872912 -0.16996658 0
1.7633002 3.1474726 -0.074947834 4
2.2456846 1.2610199 -0.13465703 0
7.9659147 -5.3264003 0.016956329 0
2.4465365 -0.052954037 -0.18563116 0
2.3799727 -1.5101442 -0.17125094 4
9.7841988 5.4904828 -0.13001692 0
1.7825375 3.1301064 -0.082940102 5
2.245961 1.2372174 -0.12834954 0
7.9618707 -5.4112496 0.023808122 0
2.4430895 -0.071606629 -0.18141198 0
2.3696575 -1.5286276 -0.16570449 4
2.2774699 1.2372265 -0.1603502 0
7.9631891 -5.5046039 0.029627204 0
2.4395113 -0.090971544 -0.17709613 0
2.3670912 -1.5555822 -0.16960776 4
5.2570066 2.6526098 0.8172183 0
1.8174047 3.0769591 -0.089927077 0
2.2725232 1.2075478 -0.14723206 0
7.9386191 -5.582521 0.041934967 0
2.4523456 -0.11202521 -0.19137895 0
2.3584204 -1.5780268 -0.16666317 2
5.3002062 2.6242869 0.80560654 0
1.8356993 3.0494299 -0.093816638 0
2.2875562 1.1925259 -0.15860057 0
2.4384282 -0.13208298 -0.17571497 0
2.3601117 -1.6116853 -0.17637372 0
1.8498819 3.0091801 -0.090355754 2
2.3028486 1.1766129 -0.17004657 0
7.9746704 -5.81814 0.046791792 0
2.4409206 -0.15390354 -0.17860496 0
2.34477 -1.6299976 -0.16639733 0
5.3149309 2.5219202 0.79774374 0
1.8721352 2.9885185 -0.099695802 0
9.2974768 -0.63827097 -0.21961749 5
2.312501 1.155743 -0.17456448 0
7.9731112 -5.9275513 0.054433346 0
2.439862 -0.17609115 -0.17767608 0
2.3398132 -1.6595601 -0.16896677 0
5.3203244 2.4677522 0.79425395 5
1.873982 2.9152827 -0.076176405 0
9.2478504 -0.71901387 -0.20627379 11
2.2960386 1.1158931 -0.14744473 0
2.438592 -0.19881713 -0.17662799 0
2.3368707 -1.6924676 -0.17443228 7
1.8934691 2.8856452 -0.080620408 0
9.3282719 -0.81314927 -0.22318029 0
2.3291178 1.1100287 -0.18015599 0
8.0066652 -6.191298 0.061469436 0
2.4370577 -0.22211666 -0.17548454 1
2.3278983 -1.7204165 -0.17320573 14
5.479835 2.4321902 0.7556808 0
1.9165287 2.8633795 -0.090298295 0
9.3009758 -0.89982516 -0.21478164 0
2.3183389 1.0735706 -0.15996122 0
8.0077629 -6.3171206 0.069247127 0
2.4352822 -0.24590896 -0.17421281 1
2.315737 -1.7460096 -0.16845334 14
5.7232804 2.4914126 0.70129108 19
2.3428884 1.0601063 -0.18213952 0
2.4332514 -0.27019069 -0.17280877 0
2.3108485 -1.7805797 -0.17287683 3
5.7478528 2.4379344 0.69383335 0
1.9513419 2.7896514 -0.09195447 0
8.5761652 -0.99291664 -0.04240334 0
2.3437433 1.0306568 -0.17598546 0
8.0193453 -6.5916681 0.083796144 5
2.4309523 -0.29491898 -0.17126894 0
2.2975237 -1.8069197 -0.16755152 0
5.7545881 2.3748498 0.69035685 19
1.9767289 2.7695923 -0.10455477 0
8.5080395 -1.0706815 -0.024266362 2
2.3264298 0.98998737 -0.14840639 0
7.9206905 -6.6403637 0.11576128 0
2.4448764 -0.32306185 -0.1881305 0
2.296418 -1.8483661 -0.17752159 0
5.8056412 2.3313589 0.67746413 11
1.9951141 2.7335443 -0.1067003 0
8.4728765 -1.1531664 -0.013374209 8
2.3510511 0.97456568 -0.17050672 0
7.6662178 -6.5436797 0.18370652 12
2.435482 -0.34748626 -0.17881441 0
2.2742743 -1.8665336 -0.16219258 1
5.8657064 2.2901564 0.66275072 10
2.0040619 2.6781433 -0.09546566 0
8.4608383 -1.2402024 -0.0074173212 0
2.3605506 0.94956279 -0.17477036 0
7.5026951 -6.5284896 0.23075151 4
2.4324121 -0.37345278 -0.17675269 2
2.2617726 -1.8967863 -0.15906334 8
5.9663916 2.2644773 0.63926327 1
2.014466 2.6264451 -0.086645365 1
8.4717751 -1.3321748 -0.0066310167 7
2.3577569 0.91732436 -0.16462934 0
7.3428278 -6.5149088 0.27686262 0
2.425761 -0.39897853 -0.17084336 1
2.2486684 -1.9273403 -0.15560973 12
6.1172543 2.2567587 0.60500371 0
8.543911 -1.4370579 -0.019601107 0
2.3547339 0.88507015 -0.15430367 0
7.3020129 -6.6180143 0.29624391 14
2.4254227 -0.42625877 -0.17213202 2
5.5239325 6.943038 1.0028342 0
2.2350421 -1.9581288 -0.15180635 10
6.146101 2.1957667 0.59734058 0
8.5380039 -1.5297693 -0.014356852 6
2.3668272 0.86079597 -0.16183329 0
2.4280231 -0.454689 -0.17696023 0
2.2208507 -1.9890753 -0.14774263 8
6.1791248 2.1354856 0.5888294 2
8.5739117 -1.6321201 -0.018690348 3
2.3849857 0.8391915 -0.17647755 0
7.3473563 -6.9651446 0.30792272 15
2.4368162 -0.48533142 -0.18896484 0
2.210933 -2.0264885 -0.14946258 1
6.1566763 2.0535128 0.59245455 21
8.5655193 -1.7270446 -0.012601495 1
2.3843753 0.80799872 -0.16936314 0
7.3396463 -7.1142325 0.32110167 1
2.4193072 -0.50885165 -0.17129493 0
5.9487624 7.045301 0.89505523 0
2.191026 -2.0512938 -0.13870668 1
2.1166468 2.4687462 -0.11599672 0
8.5939817 -1.8313466 -0.014770508 3
2.3865533 0.77829278 -0.1657387 0
5.7852049 -5.5725555 0.67187393 0
2.4209716 -0.53809297 -0.17558479 1
2.1892889 -2.1020474 -0.15179098 4
9.6685686 3.135257 -0.17574072 0
2.1268339 2.4197793 -0.10866046 0
8.5640268 -1.9233236 -0.0038137436 0
2.4010451 0.75412714 -0.17646039 0
5.7475457 -5.6576009 0.68939281 8
2.4158459 -0.56543392 -0.17237175 2
2.1707704 -2.1301975 -0.14346504 4
9.5920181 2.9901164 -0.16103303 2
2.1407728 2.3780003 -0.10650146 0
8.5708141 -2.0249619 -0.0010713339 4
2.396364 0.72147834 -0.16530621 0
5.6434898 -5.6678972 0.72128487 0
2.4072351 -0.59168178 -0.16532397 12
2.1609414 -2.1715581 -0.14678085 3
9.6998072 2.9072678 -0.18642843 2
8.6328373 -2.1427126 -0.010803938 0
2.4072034 0.69554746 -0.17215085 0
5.5718889 -5.714222 0.74619055 8
2.4047568 -0.62013203 -0.16546631 10
2.1460867 -2.2062898 -0.1438874 6
2.1893332 2.3289714 -0.12981117 0
8.4722834 -2.1996665 0.029775143 10
2.4082065 0.66569841 -0.16794789 0
5.5000319 -5.7594628 0.77128804 10
2.4051721 -0.6497947 -0.1691159 5
9.1968575 10.157268 0.25610459 5
2.1243587 -2.2307096 -0.13190019 1
9.6131916 2.6454039 -0.17111969 0
2.1930103 2.2731507 -0.11550224 0
8.4051952 -2.2809126 0.049159408 23
2.4185209 0.6395604 -0.17449415 0
2.3988788 -0.67697132 -0.16535878 5
2.1217377 -2.2858627 -0.14603043 2
9.6659994 2.5450683 -0.1844542 0
2.2164049 2.2482655 -0.12657893 0
8.4028444 -2.3806207 0.05406642 10
2.4220817 0.61102992 -0.17363787 0
5.4824586 -6.0055313 0.7954846 9
2.3955359 -0.70528191 -0.16508615 10
2.0994051 -2.3098915 -0.13367856 5
2.2278512 2.2064145 -0.12302554 0
8.5437145 -2.5267649 0.027223825 0
2.4253452 0.58261389 -0.1725992 0
2.3919208 -0.73350078 -0.16468 10
2.085294 -2.3475733 -0.13278854 4
9.6782789 2.3193862 -0.19010878 0
2.2338998 2.1581736 -0.11326802 0
8.7428598 -2.6960769 -0.012338996 0
2.4445188 0.55955487 -0.1896832 0
7.5438843 -8.9935131 0.4029876 24
2.3974571 -0.76579595 -0.17504394 3
2.0708997 -2.3850243 -0.13175118 1
8.7316837 -2.7969725 -0.0046795607 1
2.4341362 0.52731025 -0.17369926 0
2.3901649 -0.79230362 -0.17079401 2
2.0501878 -2.4115109 -0.12200737 1
9.6085052 2.0797193 -0.17686546 0
2.2699194 2.098757 -0.12477612 0
8.7380648 -2.9037185 -0.00067901611 0
2.4331417 0.49856895 -0.16850543 0
2.3888922 -0.82148296 -0.17369127 0
2.0414076 -2.4592266 -0.12917006 0
2.2858734 2.0675943 -0.12865353 0
8.7573271 -3.0149355 0.00071680546 0
2.4481795 0.47469655 -0.18148708 0
7.1829262 -9.114502 0.52598083 14
2.3811886 -0.8473739 -0.16927207 0
2.0360763 -2.514168 -0.14173961 0
9.6135445 1.8655006 -0.17903733 0
2.2887743 2.0208538 -0.11735868 0
8.7619352 -3.120466 0.0055965185 0
2.4465449 0.4465127 -0.1759671 0
2.3733523 -0.87283468 -0.16477525 0
2.01879 -2.546973 -0.1373471 0
9.6906672 1.7757456 -0.19617939 0
2.3033795 1.990324 -0.12052846 0
8.770299 -3.226964 0.0097250938 0
2.4544127 0.42124286 -0.18133008 0
7.1109023 -9.4224453 0.57607627 0
2.3745797 -0.90282869 -0.17097628 8
1.999609 -2.5756009 -0.13020849 2
9.6081066 1.6565953 -0.17811346 0
2.3199399 1.9631354 -0.12638223 0
2.4620132 0.39619249 -0.18652964 0
2.3725986 -0.93093574 -0.17345762 8
1.9823284 -2.6075199 -0.12580621 2
9.6249981 1.5584072 -0.18180346 0
2.4660437 0.37071317 -0.18788207 0
2.3613145 -0.95350796 -0.16518795 8
1.9632831 -2.6352308 -0.11865711 1
9.6213245 1.4587934 -0.18071032 0
2.3460753 1.9034688 -0.13124096 0
8.8044357 -3.5472348 0.020561814 0
2.4698012 0.3456389 -0.18907022 0
2.3652096 -0.98437268 -0.17463207 3
1.9479401 -2.6700287 -0.11700201 0
2.3529329 1.8682405 -0.12711561 0
8.7920895 -3.6422009 0.029435992 0
2.4666173 0.31980696 -0.18274951 0
2.3448446 -1.0004219 -0.15559864 0
1.9378304 -2.7159507 -0.1234144 0
9.6005049 1.26404 -0.17529583 0
2.3670299 1.8423822 -0.13177001 1
8.846159 -3.7665658 0.023844481 0
2.469835 0.29580453 -0.18361473 0
2.3516011 -1.0323918 -0.16843653 0
1.9276733 -2.7615571 -0.129776 0
9.6124153 1.173413 -0.17753661 0
2.3697972 1.8052977 -0.12388456 2
8.8019094 -3.8441942 0.039464235 0
2.466115 0.27126887 -0.17697489 0
2.3343716 -1.0488889 -0.15294135 0
1.9106908 -2.7913744 -0.1254015 0
2.3799188 1.7774926 -0.12483418 2
8.793025 -3.9367373 0.04729557 0
2.4721191 0.24888611 -0.18129408 0
2.3380435 -1.0781739 -0.16215217 0
1.8972838 -2.8284454 -0.1264714 0
9.6087208 0.9957847 -0.17543924 0
2.3975461 1.7587715 -0.13470209 0
2.4645445 0.2253314 -0.17069447 0
2.3535142 -1.1150589 -0.18533289 0
1.8807747 -2.8572268 -0.12234676 0
8.4471951 -3.9484873 0.13291717 6
2.4667459 0.20379925 -0.17106986 0
2.3424006 -1.1336037 -0.17690778 0
1.8630702 -2.8814352 -0.11583686 0
9.6056795 0.82885444 -0.17342651 2
2.4145393 1.7059895 -0.13498855 0
8.405262 -4.0137382 0.14769042 1
2.4721093 0.18327574 -0.17500985 0
2.322691 -1.1451317 -0.15808439 0
1.8584843 -2.9368227 -0.13025808 0
9.6319895 0.75205475 -0.178213 0
2.4248188 1.6833555 -0.13773668 0
8.3727036 -4.0806799 0.16035104 0
2.4705307 0.16275834 -0.17149425 0
2.3148465 -1.1640556 -0.15335715 0
1.8415978 -2.9598804 -0.12416923 0
2.423161 1.6505941 -0.127689 0
8.5483465 -4.2573948 0.12941182 0
2.4452591 0.14116019 -0.14201558 0
2.3361466 -1.2034589 -0.18350089 0
1.8344409 -3.0063655 -0.13374257 0
9.633482 0.60245073 -0.17631829 1
2.4348876 1.6322116 -0.13287067 2
2.4802306 0.12512445 -0.17898476 0
2.3227944 -1.2167373 -0.17200208 0
9.6441145 6.8515182 -0.053508162 0
9.6330881 0.53239745 -0.17501426 1
2.4431534 1.6118624 -0.13463151 3
8.9231138 -4.6262288 0.063458204 0
2.4814773 0.10720583 -0.17891395 0
2.3097091 -1.2290279 -0.16070879 0
1.8081326 -3.061367 -0.1306802 0
2.4450276 1.5871197 -0.12975216 1
2.4825439 0.090158954 -0.17880225 0
2.3169568 -1.2558534 -0.17376137 1
1.7881014 -3.0654323 -0.11588585 0
9.6352892 0.4026657 -0.1725626 0
2.4547982 1.5711042 -0.13403702 1
8.964179 -4.801682 0.067901134 0
2.4868145 0.074125499 -0.18235159 0
12.144203 -22.962397 0.19706964 9
2.3129737 -1.273077 -0.17315519 2
1.781934 -3.105427 -0.12413824 0
9.628252 0.34270948 -0.16932702 1
8.969368 -4.8750782 0.073058844 0
2.4842422 0.058770116 -0.17844963 0
2.3007987 -1.2825804 -0.16243577 9
9.6274948 6.4625716 -0.068139911 0
1.7707365 -3.1284368 -0.1227951 0
9.6304483 0.28682983 -0.16829157 1
2.466646 1.5365899 -0.13532686 0
8.9293785 -4.9175568 0.087316036 0
2.4782062 0.044304781 -0.17079973 0
2.2918706 -1.2933426 -0.1553582 11
1.7493932 -3.1177676 -0.10212636 0
9.6419764 0.23500901 -0.16931975 0
2.4744933 1.5233561 -0.13864112 0
2.4787538 0.031134017 -0.17055488 0
2.2946188 -1.3123041 -0.16223395 10
1.7347834 -3.1226664 -0.092004657 0
2.4757917 1.5060502 -0.13535905 0
2.4792402 0.01895998 -0.17026758 0
2.2893121 -1.3233263 -0.15910292 9
1.7334609 -3.1639776 -0.10462928 0
2.4852576 1.4973346 -0.14126122 0
2.4863851 0.0079318462 -0.17736161 0
11.402821 -22.902363 0.44564164 14
2.2872391 -1.3356953 -0.1596365 8
1.7223134 -3.1714361 -0.098162055 0
2.4822352 1.4797682 -0.13414407 0
8.7718134 -5.0371871 0.1393944 0
2.4833529 -0.0020833667 -0.17337489 0
11.313194 -22.935017 0.48075223 14
2.2801278 -1.3422663 -0.15358269 7
1.7123165 -3.1780818 -0.092334032 4
2.4874249 1.4707155 -0.13628078 0
8.6042395 -4.9728985 0.17722261 0
2.4836707 -0.010923411 -0.17305517 0
11.220898 -22.935308 0.5141207 9
2.2873859 -1.3596746 -0.16486907 4
9.6185513 6.0836544 -0.080271125 0
1.7074695 -3.196388 -0.094488621 3
2.4919219 1.4628271 -0.13811791 1
8.5559311 -4.9775887 0.19029176 0
2.4805405 -0.018529518 -0.16908443 0
2.2812586 -1.364069 -0.15944254 1
9.7339201 6.122911 -0.10516918 0
1.6986301 -3.1972213 -0.087548375 1
9.4120131 0.0098025855 -0.11154401 13
2.4928629 1.4536327 -0.13640106 2
8.530839 -4.9912486 0.19829357 0
2.4875321 -0.025132472 -0.17616868 0
2.2812693 -1.3721653 -0.16107571 0
9.7487516 6.0999541 -0.10846198 0
1.6949694 -3.2096636 -0.088721633 0
9.4268847 -0.011575876 -0.11373377 52
2.4960587 1.4480742 -0.13761616 3
8.5121956 -5.0035934 0.20464408 0
2.4843853 -0.030365216 -0.17219663 0
2.2818367 -1.3791877 -0.16299617 0
1.6913183 -3.2171495 -0.088083982 0
9.4465923 -0.028535808 -0.11704946 68
2.5016294 1.4461682 -0.14165354 3
8.487525 -5.0066924 0.21169233 0
2.4711378 -0.034144096 -0.15714478 0
2.2774577 -1.3802134 -0.15846944 0
1.6902342 -3.2279382 -0.090681791 0
9.4369535 -0.040760022 -0.11408579 57
2.5005567 1.4406863 -0.13896275 4
8.486104 -5.0189414 0.2138499 0
2.4882123 -0.037273519 -0.17535317 0
2.2819657 -1.3873708 -0.16443086 0
1.679034 -3.2002254 -0.072208047 0
9.4566603 -0.048462544 -0.11741149 68
2.501806 1.4388376 -0.13917696 4
8.4871597 -5.0270615 0.21513808 0
2.4783278 -0.038614072 -0.16403818 0
2.2788396 -1.3860726 -0.16053283 0
1.6807163 -3.2092535 -0.076370478 0
9.437274 -0.050979491 -0.11236191 71
2.5023983 1.4383236 -0.13900661 4
8.44104 -4.9989452 0.22569168 0
2.4886897 -0.039070517 -0.17488146 0
2.2763202 -1.3836509 -0.1569432 0
1.6800237 -3.2048542 -0.074012995 0
9.4569893 -0.049211238 -0.11586785 68
2.5023427 1.4389988 -0.13855219 4
8.4758987 -5.0178041 0.21946704 0
2.4754276 -0.037815936 -0.15992939 0
2.2854757 -1.3897597 -0.16723752 0
1.6819067 -3.203768 -0.074893475 0
9.4376469 -0.04240666 -0.11085153 58
2.5015903 1.4409438 -0.13779926 4
8.4469471 -4.9897804 0.22567523 0
2.4790742 -0.035648797 -0.16341174 0
2.2814496 -1.3826005 -0.1608845 0
1.6903713 -3.2185709 -0.086136341 0
9.4525394 -0.031102806 -0.11317241 69
2.5032182 1.4464961 -0.1399157 3
8.4909754 -5.0029902 0.21703398 0
2.4793065 -0.032173071 -0.16325939 0
2.2862623 -1.3815937 -0.16504395 0
1.6975915 -3.2241132 -0.093366861 0
9.4283123 -0.015174834 -0.10711658 51
2.5041275 1.4532763 -0.14177334 3
8.5123777 -4.9962921 0.21225119 0
2.48966 -0.027696367 -0.17418754 0
2.2806106 -1.3697928 -0.15593302 0
9.707058 6.0774345 -0.087697268 0
1.7010789 -3.2121024 -0.091560125 1
9.438282 0.0051727085 -0.1083777 45
2.4983792 1.4564116 -0.13695633 2
8.5362921 -4.9853611 0.20675874 0
2.4797707 -0.021667572 -0.16298032 0
2.2865858 -1.366563 -0.16068971 1
9.6961546 6.1042237 -0.082401752 0
1.7058265 -3.1992848 -0.090424538 2
9.3797569 0.029838165 -0.094919324 7
2.497911 1.4655625 -0.13826561 1
8.5874233 -4.9862733 0.19511688 0
2.4900846 -0.01472134 -0.17393935 0
11.222401 -22.953026 0.54871774 8
2.2876036 -1.3573761 -0.15895414 4
9.706769 6.1521206 -0.081106186 0
2.4937677 1.4734656 -0.13608873 0
8.6117821 -4.9645147 0.18849325 0
2.4868538 -0.0064345133 -0.17016327 0
11.321948 -22.971788 0.52034163 11
2.2918921 -1.349504 -0.16093218 7
1.7311213 -3.2085612 -0.11212814 0
2.4889171 1.4824315 -0.13370609 0
2.4937086 0.0029986622 -0.1774534 0
2.2883222 -1.3335155 -0.15292335 8
1.7478249 -3.2181005 -0.12764633 0
2.4923301 1.4999298 -0.14051747 0
2.4903705 0.013517386 -0.17368603 0
2.2964058 -1.3258781 -0.15884888 9
1.7480986 -3.172965 -0.11192513 0
9.3056049 0.17037149 -0.075407267 0
2.4861553 1.5111194 -0.13749635 0
2.486959 0.025078829 -0.16991639 0
2.2965093 -1.3102124 -0.15478718 10
1.7575624 -3.1519439 -0.11141026 0
9.7885504 0.22777507 -0.17866337 0
2.482259 1.5258558 -0.13734615 0
2.4902475 0.037820525 -0.17347956 0
2.3026371 -1.2982378 -0.15779066 10
9.7249489 6.467864 -0.061749578 0
1.7721617 -3.1424608 -0.11895549 0
2.4718866 1.5365098 -0.1305443 0
9.0906668 -4.9904261 0.076933742 0
2.4900551 0.051518321 -0.17334294 0
2.30352 -1.2807117 -0.15414095 8
1.7835622 -3.119915 -0.11950576 0
2.4755116 1.5609303 -0.139135 0
2.4897776 0.066180341 -0.17315543 0
12.14102 -22.991241 0.2695545 9
2.3218565 -1.2757665 -0.17130721 2
1.7972381 -3.100668 -0.12313604 0
2.4668157 1.5760908 -0.13476467 1
9.1114712 -4.8605471 0.065222263 0
2.4893959 0.081846133 -0.17291152 0
2.3262653 -1.2585881 -0.17152286 0
1.807405 -3.0685005 -0.11962652 0
9.7859316 0.45796782 -0.17425454 0
2.4574962 1.5921394 -0.13005865 2
2.49227 0.098620363 -0.17628896 0
2.3281138 -1.2383083 -0.16845143 0
1.7958207 -2.974962 -0.078602195 0
9.7924137 0.52504003 -0.17488086 1
2.4533596 1.6142821 -0.13124216 2
9.085989 -4.6885924 0.062476635 0
2.4983799 0.11656076 -0.18327975 0
2.3272464 -1.2151139 -0.1620779 0
1.8340423 -3.0143058 -0.12144864 0
9.7933779 0.59514159 -0.17414498 1
2.4457271 1.6346691 -0.12889826 2
9.0206728 -4.5688696 0.071826816 0
2.4942138 0.1347214 -0.17914438 0
2.320756 -1.1869897 -0.14884138 0
1.8490744 -2.9882183 -0.12415445 0
2.4374242 1.6557852 -0.12629354 0
8.3750896 -4.1349545 0.2005229 1
2.4831069 0.15303187 -0.16759789 0
2.3465166 -1.1814059 -0.17383921 0
1.8677564 -2.9694672 -0.13233089 0
9.8466072 0.74921578 -0.18379128 0
2.4397256 1.6886178 -0.13573074 0
8.3640614 -4.047061 0.19900429 0
2.4853361 0.17318618 -0.17066181 0
2.3579111 -1.1643358 -0.18164527 0
9.8902626 7.418324 -0.039345264 0
1.8759322 -2.9221764 -0.12275267 0
9.8158979 0.82628065 -0.17633855 1
2.4328573 1.7140598 -0.13551676 0
8.4101553 -3.986537 0.18574548 3
2.487324 0.1941684 -0.17366207 0
2.3547633 -1.1362985 -0.17207158 0
1.8825901 -2.870568 -0.11064696 1
2.4142025 1.7289629 -0.12270761 0
8.4655781 -3.9277339 0.17028117 4
2.4824047 0.2150538 -0.16917527 0
2.3486192 -1.1058199 -0.15903103 0
1.9025598 -2.8500164 -0.11951411 2
2.4224982 1.772593 -0.14036798 0
2.4805863 0.23697075 -0.16829562 0
2.354358 -1.0828434 -0.15996134 0
9.9639158 7.8950562 -0.025808573 0
1.9179182 -2.8171203 -0.12068605 0
9.8543301 1.0868767 -0.18152297 1
2.4025605 1.7885294 -0.12705243 1
9.0783682 -4.0426145 0.034597635 0
2.4617498 0.2570256 -0.1489377 0
2.360141 -1.0593357 -0.16086662 0
1.9249308 -2.7643332 -0.10871089 0
2.392874 1.8163614 -0.12575662 2
9.1063433 -3.9557409 0.024294257 0
2.479531 0.28308806 -0.16991127 0
2.3659694 -1.0352567 -0.16174912 0
1.9457996 -2.7421341 -0.11796856 0
9.8712492 1.273666 -0.18269873 0
2.3852463 1.8476045 -0.12717783 1
9.0048847 -3.8072181 0.041040659 0
2.4769497 0.30671668 -0.16869175 0
2.3626575 -1.005168 -0.15204751 0
1.9705751 -2.7269435 -0.13275778 0
9.8730927 1.3699141 -0.18165398 0
2.3741808 1.8764182 -0.12530792 0
9.0322037 -3.717391 0.030866265 0
2.4773972 0.33146045 -0.17104912 0
2.3835962 -0.98916119 -0.170555 3
1.9757872 -2.6693053 -0.11799896 0
9.9123125 1.4746224 -0.18849933 0
2.3651142 1.9087119 -0.12607241 0
2.4809082 0.35746261 -0.17690706 0
2.3892787 -0.96351099 -0.17141151 7
1.9898944 -2.6304398 -0.11659157 3
9.935688 1.5796196 -0.19167101 0
2.3319318 1.9139868 -0.099641562 0
9.022788 -3.5052867 0.023825526 0
2.4874256 0.3847788 -0.18628526 0
2.3887322 -0.93398833 -0.1651088 7
2.0096104 -2.6024406 -0.12331891 3
2.3423009 1.9714847 -0.12371218 0
8.99438 -3.3883893 0.02529645 0
2.4836264 0.41049528 -0.18453467 0
7.1050506 -9.4401941 0.63794076 0
2.4003677 -0.91088754 -0.17296112 7
2.0274847 -2.5702128 -0.12735808 2
9.9684906 1.7951202 -0.19449389 0
2.3261282 1.9987937 -0.11750591 1
9.0197353 -3.2928326 0.015446901 0
2.4795077 0.4365752 -0.18264592 0
2.4057312 -0.88395256 -0.17364001 0
2.0472765 -2.5413027 -0.13406646 0
2.3144155 2.0325956 -0.11695659 0
8.9987001 -3.1782227 0.015328765 0
2.4618447 0.45952514 -0.16601264 0
7.1783824 -9.1328297 0.59276104 14
2.4140174 -0.85818195 -0.17787313 0
2.0532112 -2.4863942 -0.12125289 0
9.9427299 2.0075676 -0.18397796 0
2.3070273 2.0731406 -0.12188125 0
2.4736216 0.4906036 -0.18205881 0
2.4252999 -0.83352673 -0.18560362 0
2.076838 -2.4640298 -0.13336694 0
2.2940376 2.1076257 -0.12052178 0
8.9812288 -2.9580772 0.010278225 2
2.4488525 0.51183438 -0.15781868 0
7.4067025 -9.0381737 0.5201776 0
2.4206338 -0.8010152 -0.17535627 3
2.0923111 -2.4267979 -0.13421512 2
2.2416945 2.0899532 -0.072396278 0
2.4566483 0.54277062 -0.16986823 0
7.529501 -8.9972706 0.48233545 25
2.4283578 -0.77421427 -0.17933583 3
2.1075468 -2.3893361 -0.13488507 3
10.028854 2.3689454 -0.19260657 0
2.2684989 2.180573 -0.11973965 0
9.0015297 -2.7502763 -0.0021933317 0
2.4575276 0.57217193 -0.1744349 0
2.4231381 -0.74160653 -0.16880417 8
2.120302 -2.3481855 -0.13253522 5
2.258353 2.2223518 -0.12313211 0
8.513134 -2.4872119 0.09904027 4
2.461297 0.6029886 -0.18246317 0
5.4891219 -6.0282135 0.84996146 9
2.4239974 -0.71171999 -0.16533101 10
2.1370454 -2.313832 -0.13571942 2
9.9928551 2.5951684 -0.17753625 0
2.2405417 2.254247 -0.11755812 0
8.441782 -2.3642395 0.11105263 4
2.455004 0.63072169 -0.17938149 0
2.4341881 -0.68564367 -0.17255867 0
2.1359401 -2.2517858 -0.11556375 0
2.2313461 2.2998478 -0.12307787 0
8.467536 -2.2717338 0.10225463 10
2.4483995 0.65846485 -0.17615652 0
5.5081325 -5.7819343 0.82737392 7
2.4280622 -0.65317857 -0.16153491 4
9.1886644 10.158382 0.35205066 7
2.1628456 -2.2343731 -0.13282061 5
2.2236793 2.349128 -0.1310463 0
8.520709 -2.1863976 0.087900877 0
2.4447124 0.68744308 -0.17639995 0
5.5549731 -5.7065196 0.80897576 45
2.4377947 -0.62676877 -0.16844964 10
2.1830218 -2.206336 -0.14123046 6
9.9984884 2.9586184 -0.16606688 0
8.9324446 -2.1957884 -0.0039266348 1
2.4183345 0.70722663 -0.15120602 0
5.639977 -5.6754193 0.78283322 0
2.434268 -0.59571654 -0.16070473 12
2.1936908 -2.1647573 -0.13774276 2
2.1843815 2.4130054 -0.11792374 0
8.9233837 -2.0882251 -0.0044311285 3
2.420573 0.7386145 -0.1583246 0
5.7380333 -5.6579056 0.75415909 8
2.4434955 -0.56912684 -0.16729128 2
2.213069 -2.1364496 -0.14579988 5
10.180288 3.2669444 -0.19473255 0
2.1705956 2.4553981 -0.11936653 0
8.9320087 -1.9860464 -0.0084834099 0
2.4320009 0.77441049 -0.17603815 0
2.4557049 -0.5434534 -0.17739213 1
2.2274225 -2.101485 -0.14768398 1
2.1541817 2.494127 -0.11781764 0
8.9059763 -1.8766026 -0.0050240755 4
2.4177365 0.79884821 -0.16485155 0
7.3517551 -7.1399808 0.40310466 2
2.4578354 -0.5147475 -0.17638683 0
8.2516794 10.143059 0.60506105 0
2.2436018 -2.0698209 -0.1522938 0
6.2124224 2.0464783 0.63753831 2
2.127095 2.5144534 -0.10239768 0
8.8928919 -1.7715746 -0.0040826797 0
2.4158792 0.82888007 -0.16790652 0
7.3331685 -6.9618907 0.39639366 15
2.4563382 -0.48533085 -0.17157102 0
2.25686 -2.0350087 -0.1536566 0
6.166584 2.1025631 0.64999986 33
8.8736305 -1.6668528 -0.0016460419 4
2.4106567 0.85726577 -0.16721594 0
2.4644396 -0.45887798 -0.17750061 0
5.6928482 7.0238152 1.0316838 0
2.2621942 -1.9910177 -0.14556408 8
6.3257656 2.2389591 0.62024355 10
8.8481483 -1.5629089 0.0023052692 3
2.3989339 0.88213152 -0.15935326 0
7.2854457 -6.6114073 0.38701785 14
2.4623199 -0.43008456 -0.17230177 2
5.5720811 7.0139561 1.0643651 0
2.2741327 -1.9567994 -0.14620483 10
6.2738929 2.2927539 0.63404644 13
2.0795143 2.6355894 -0.10175729 0
8.8838158 -1.4718924 -0.0070984364 3
2.4026413 0.91484332 -0.16912746 0
2.4632328 -0.40248194 -0.17054307 2
2.2854786 -1.9228342 -0.14651656 11
6.0636158 2.2776182 0.68046427 10
8.8315859 -1.3668269 0.0028414726 7
2.3936818 0.94065988 -0.16464007 0
7.5052786 -6.5396399 0.32267427 2
2.4638124 -0.37528798 -0.16862786 1
5.4046044 7.0904975 1.1183679 0
2.2987599 -1.8922313 -0.14951468 7
5.8906236 2.2730854 0.718997 11
8.8600197 -1.2772763 -0.0046963692 0
2.3815501 0.96427792 -0.15653217 0
7.6770291 -6.5617218 0.27736914 15
2.4673944 -0.34920287 -0.17023051 0
2.3217044 -1.873814 -0.16458094 0
5.8083882 2.3044484 0.73890388 12
2.031841 2.7579527 -0.10253084 0
8.8389826 -1.1813943 -0.001429677 8
2.3724287 0.98913515 -0.15188837 0
2.4807205 -0.3252646 -0.18268585 0
2.3365107 -1.8466098 -0.17009985 0
5.766561 2.3521585 0.75058007 23
2.0047107 2.7749293 -0.086974859 0
8.8797121 -1.096002 -0.011391401 2
2.3692842 1.0172093 -0.15423787 0
8.0580034 -6.6330767 0.17897403 9
2.4837732 -0.29971632 -0.18398118 0
2.3376205 -1.8051502 -0.15980816 3
5.7514086 2.4110157 0.75707614 5
8.9097939 -1.0099659 -0.018746495 0
2.3841169 1.0562981 -0.17757082 0
8.1752205 -6.6000595 0.14559019 0
2.4731629 -0.27251837 -0.17041683 0
2.3485506 -1.775804 -0.16160393 9
5.7272372 2.4644773 0.76543951 26
9.0504932 -0.93755257 -0.050367951 1
2.3656487 1.0742714 -0.16220975 0
8.3622761 -6.6280046 0.097157121 0
2.475646 -0.24801341 -0.17142737 2
2.3588808 -1.7468746 -0.163082 13
5.6986256 2.5144782 0.77482903 9
1.9634349 2.9084752 -0.097159028 0
9.7105627 -0.91666418 -0.195436 0
2.3592539 1.0993195 -0.16081786 0
2.4778419 -0.22395875 -0.17233729 1
2.368629 -1.7183713 -0.16424847 10
1.9473858 2.9470696 -0.096940994 0
9.6508951 -0.81833929 -0.18259537 7
2.355809 1.1258777 -0.16288328 0
2.4797971 -0.20035963 -0.17311978 0
2.3777504 -1.690327 -0.16514075 0
5.5806923 2.5781252 0.80627739 0
1.9264641 2.9732282 -0.089251399 1
9.6826344 -0.73074502 -0.18949425 13
2.3582311 1.1561233 -0.17185783 0
8.3809519 -6.2600484 0.071843982 0
2.4747634 -0.1766692 -0.16643298 0
4.6675162 7.1340275 1.3382943 0
2.3917708 -1.668228 -0.17206359 0
5.3404446 2.5084672 0.85810041 0
1.9107895 3.0108733 -0.089132428 4
9.732954 -0.6462307 -0.20015991 0
2.3518054 1.1797316 -0.17038333 0
8.328783 -6.099916 0.077079535 0
2.4829633 -0.15481925 -0.17437243 0
2.4052958 -1.6465151 -0.17871881 0
5.3612132 2.576251 0.85802245 0
1.8938315 3.0439699 -0.086611271 6
2.3425353 1.2006259 -0.16545594 0
2.4976683 -0.13396817 -0.18960404 0
2.4015217 -1.6094218 -0.16592109 1
5.3132143 2.6045351 0.87155348 0
1.8709631 3.0602741 -0.074397802 2
2.3333964 1.220782 -0.16060078 0
8.2759562 -5.8383651 0.077177882 0
2.5054688 -0.1130028 -0.19734979 0
4.4685683 7.2054658 1.4075285 0
2.4110057 -1.5863444 -0.16873586 2
1.8594255 3.1044705 -0.079568744 0
2.3243854 1.2402442 -0.15581763 0
8.3272161 -5.7746863 0.060415864 0
2.4928858 -0.091525078 -0.1828506 0
4.395174 7.205163 1.4302224 0
2.4142938 -1.5587264 -0.16478574 1
1.8242254 3.0825367 -0.04595387 0
9.3255072 -0.30344847 -0.10831821 12
2.3155837 1.2589072 -0.15113056 0
2.4868813 -0.071376145 -0.1756227 0
2.4282987 -1.5421408 -0.17337775 2
10.41631 5.8153486 -0.10823953 0
1.8313985 3.1749489 -0.080681086 0
2.3155732 1.2835824 -0.15681159 0
2.4874496 -0.052325379 -0.17570579 0
2.4332037 -1.518636 -0.17196059 2
1.8138039 3.1969202 -0.074384212 0
2.3043292 1.2984505 -0.14893234 0
8.2966595 -5.4719224 0.053958416 0
2.4879372 -0.034109525 -0.17566288 0
4.2306275 7.278677 1.4892192 0
2.4432471 -1.5009427 -0.17669654 0
1.7983527 3.2223504 -0.070866108 0
2.301898 1.3193878 -0.15141487 0
8.2783689 -5.3752937 0.054595828 0
2.4815459 -0.016667617 -0.16818249 0
2.4324148 -1.466875 -0.1583606 0
10.524471 6.1817856 -0.10755324 0
1.787833 3.2596211 -0.074862599 0
9.4436378 -0.037346389 -0.13046885 13
2.3109753 1.3489574 -0.16763902 0
2.5020726 -0.00023127746 -0.19013512 0
2.4587388 -1.4655613 -0.18193591 0
10.418326 6.2059431 -0.08085835 0
1.7683642 3.2669935 -0.062647223 0
9.4927368 0.022053413 -0.14022875 2
2.2950225 1.3565648 -0.15342569 0
2.4853864 0.015323285 -0.17145705 0
2.4465897 -1.4335542 -0.16287065 4
1.7567265 3.2945542 -0.062726855 0
2.2934775 1.3750837 -0.15638173 0
8.3044271 -5.1726003 0.040315628 0
2.5023766 0.030199876 -0.1896261 0
2.4513562 -1.4170531 -0.16302276 7
1.7526217 3.3425176 -0.074935555 0
2.2867632 1.3879405 -0.1527189 0
8.2838564 -5.0948238 0.0427953 0
2.4990938 0.043882459 -0.18559432 0
2.4555342 -1.4015207 -0.16286898 9
1.737448 3.3518724 -0.066586018 0
9.7700853 0.1847904 -0.19752276 0
2.2833035 1.402277 -0.1526134 0
8.3015604 -5.0479884 0.036963224 3
2.4822714 0.056043513 -0.16678357 0
2.4621205 -1.3893514 -0.16564476 9
10.695172 6.7078605 -0.11085892 0
1.7247801 3.3646638 -0.061131239 0
2.280266 1.415665 -0.15275753 0
2.4755569 0.067282639 -0.15901256 0
2.465122 -1.3758695 -0.16487849 7
10.714598 6.7881641 -0.10909665 0
1.7133629 3.376667 -0.056256413 0
9.7684088 0.27337244 -0.19495559 1
2.2777872 1.4281123 -0.1530565 0
8.2639771 -4.9216905 0.042388201 0
2.4823077 0.077953696 -0.16599631 0
2.4645803 -1.3611068 -0.16053307 8
1.7068222 3.4006734 -0.058954954 0
9.7967482 0.312612 -0.2000649 1
2.2703166 1.4345807 -0.14691043 0
8.3116484 -4.9093232 0.030156136 0
2.4823182 0.087290704 -0.16559029 0
2.4664319 -1.349766 -0.15916228 11
1.7053411 3.4367054 -0.069119573 0
2.2798538 1.4550483 -0.16111338 0
8.3158159 -4.8738713 0.028196335 0
2.4823565 0.095469549 -0.16517079 0
2.4706941 -1.3418428 -0.16077292 13
1.6888983 3.4165044 -0.050185204 0
9.8047047 0.37661293 -0.19942892 0
2.2789583 1.4645376 -0.16216886 0
8.3176794 -4.8421183 0.027041435 0
2.4823987 0.10252829 -0.16477299 0
2.4744143 -1.3350005 -0.1620934 12
9.8137121 0.40215272 -0.20008767 0
2.2651069 1.4602737 -0.1467694 0
8.3131733 -4.81144 0.027786016 0
2.4858642 0.10867418 -0.16805136 0
2.4805267 -1.3315163 -0.16648769 11
9.7544899 0.42019075 -0.18602741 0
2.262759 1.4650095 -0.14507973 0
8.2896194 -4.7743087 0.033037424 0
2.4826355 0.11325098 -0.16396093 0
2.4770405 -1.3225019 -0.16065443 10
1.6849368 3.4791622 -0.066328406 0
9.8272524 0.43950847 -0.20054913 0
2.271879 1.4788977 -0.15702271 0
8.3179741 -4.7748103 0.026931405 0
2.4895329 0.11731339 -0.17097628 0
2.4819958 -1.3213447 -0.16448963 10
9.836772 0.45120448 -0.20126832 0
2.270746 1.4814961 -0.15595579 0
8.3023748 -4.7533059 0.031230807 0
2.4830313 0.11929414 -0.16323626 0
2.4833567 -1.3191597 -0.16472542 9
2.2838356 1.4957055 -0.17191029 0
8.3220558 -4.7590175 0.027848244 0
2.4900441 0.12101129 -0.17028177 0
2.4840891 -1.3182241 -0.16468823 9
2.2704632 1.4832851 -0.15481508 0
2.4836247 0.12061622 -0.16260993 0
2.4812465 -1.3162338 -0.16105998 9
2.2767344 1.4875888 -0.16141379 0
8.3046455 -4.751174 0.035309553 0
2.4840052 0.11947645 -0.16233122 0
2.4808226 -1.3176863 -0.16046333 9
9.7063465 0.44141245 -0.16717327 0
2.2782037 1.4857101 -0.16165829 0
8.3217316 -4.7712955 0.033705235 0
2.4844255 0.11717483 -0.16208506 0
2.4828467 -1.3225983 -0.16285646 10
9.7706966 0.4319686 -0.179582 0
2.2694414 1.4724847 -0.14892232 0
2.4849169 0.11371309 -0.16183937 0
2.4842753 -1.3286889 -0.16498649 10
2.2640245 1.4607623 -0.13979852 0
8.3115721 -4.7998209 0.041347265 0
2.4820611 0.10884205 -0.15794635 0
2.4791358 -1.3314689 -0.1601975 11
2.2482653 1.4378979 -0.11760986 0
8.3424892 -4.8447461 0.037297606 0
2.4860294 0.10318276 -0.16140449 0
2.4764991 -1.3376403 -0.15836763 13
1.6896107 3.4040713 -0.0402174 0
9.8182878 0.36899149 -0.18542099 0
2.2849095 1.4619598 -0.15926158 0
8.3378687 -4.8725491 0.041654706 0
2.4866331 0.096153021 -0.1612103 0
2.4732494 -1.3449683 -0.15627122 12
1.7017634 3.4073737 -0.049288869 0
2.2784948 1.4445426 -0.14770591 0
8.363903 -4.9254193 0.039178371 0
2.5143211 0.089291513 -0.19044733 0
2.4724743 -1.3557742 -0.15706873 10
1.7153208 3.4099045 -0.058939815 0
9.8309479 0.30388588 -0.18532181 0
2.2753606 1.4286604 -0.13973784 0
8.304944 -4.9289246 0.056298137 0
2.4844937 0.078452617 -0.15717626 0
2.4681554 -1.3653398 -0.15429556 7
1.7225847 3.3860779 -0.055489302 0
2.2891965 1.4267073 -0.15219057 0
8.2563229 -4.9434681 0.071139336 0
2.4885299 0.068120368 -0.16064906 0
2.4751744 -1.3853296 -0.16428411 8
10.724374 6.7372756 -0.077258825 0
1.7374935 3.3826969 -0.064198971 0
9.8875856 0.22263728 -0.19451106 0
2.300904 1.4211594 -0.16152287 0
8.3407745 -5.0506954 0.056218266 5
2.5060847 0.057129361 -0.1788311 0
2.4696794 -1.3970709 -0.16088963 10
1.7483428 3.361618 -0.064213991 0
9.3707762 0.16512346 -0.082062483 0
2.2936752 1.3974786 -0.1475575 0
8.3161497 -5.0911341 0.066229582 0
2.5066814 0.044438917 -0.17860913 0
2.4665861 -1.412165 -0.16045451 9
1.7616067 3.3439918 -0.067141533 0
2.3091443 1.3923584 -0.16071916 0
8.3217764 -5.1568513 0.069735527 0
2.4902892 0.030405873 -0.15998423 0
2.4599056 -1.4258769 -0.15649366 5
1.7732162 3.3172069 -0.065906167 0
2.3082585 1.3718151 -0.15386999 0
2.4975715 0.015925122 -0.1670444 0
2.4555824 -1.4428817 -0.15552223 1
10.501839 6.2731323 -0.047608614 0
1.781575 3.2771645 -0.058066249 0
9.4369593 0.0078076739 -0.090747476 13
2.3105569 1.352833 -0.15053725 0
2.5013921 0.00036158392 -0.17038739 0
2.4594393 -1.4680936 -0.16399014 0
1.7989864 3.2615557 -0.064860344 0
9.461689 -0.052212611 -0.093942523 84
2.3216846 1.3400975 -0.15749228 0
8.3718977 -5.4079943 0.074955821 0
2.5017283 -0.016121175 -0.17001009 0
2.4567046 -1.4894286 -0.16571701 0
1.8159816 3.2410131 -0.069714308 0
2.3246326 1.3195059 -0.15441799 0
2.4952009 -0.033365704 -0.16220582 0
2.4504433 -1.5091121 -0.16394675 2
1.8278623 3.203177 -0.065483093 0
2.3192663 1.2912716 -0.1412549 0
2.5021191 -0.051669937 -0.16903102 0
2.4493592 -1.5346469 -0.16828775 3
10.663046 5.9802279 -0.092826128 0
1.8477693 3.1853938 -0.073507428 0
9.3279276 -0.24870262 -0.057831168 82
2.342819 1.2850937 -0.16220987 0
8.4215946 -5.7064972 0.084314346 0
2.5021017 -0.070694581 -0.16844952 0
2.4360743 -1.5508316 -0.15955353 1
2.3377912 1.2555715 -0.14919829 0
2.5154927 -0.091165267 -0.18247306 0
4.4289093 7.2116361 1.4588271 0
2.4336689 -1.5779538 -0.16331601 1
1.8803647 3.1231129 -0.076152682 0
2.3473747 1.2365522 -0.15331841 0
8.386034 -5.8788342 0.10770106 0
2.5151575 -0.11183131 -0.1817143 0
2.4221325 -1.5979879 -0.1571933 2
10.585644 5.6008029 -0.090895295 0
1.8973532 3.0910797 -0.077840447 0
2.3571415 1.2167556 -0.15752757 0
2.5247953 -0.13392961 -0.19187343 0
2.4128506 -1.6212562 -0.15395224 0
5.3670011 2.5891089 0.89472336 0
1.909883 3.0463908 -0.072271585 7
2.3582006 1.1898599 -0.15150321 0
2.4969106 -0.15376656 -0.16164029 0
4.6280494 7.1478834 1.3986701 0
2.4057698 -1.6478115 -0.15356338 0
5.4288387 2.566478 0.88094521 0
1.9307227 3.0214047 -0.079155445 5
2.3503852 1.1562471 -0.13512945 0
2.5095122 -0.17759983 -0.17525494 0
2.3981266 -1.6749586 -0.15281641 0
5.8397593 2.7264755 0.80061191 0
1.9486313 2.9877734 -0.081277609 1
9.8278675 -0.76030475 -0.14705908 12
2.3543351 1.1305705 -0.13255978 0
2.4947579 -0.19932297 -0.15948796 0
2.3953557 -1.7082051 -0.15801561 4
5.7424912 2.6121881 0.81701112 0
1.966728 2.9536636 -0.083463669 0
2.3642511 1.1084141 -0.13692069 0
8.5039911 -6.5555978 0.12848413 3
2.5000618 -0.2237647 -0.16558659 1
2.3891644 -1.7393219 -0.15971839 10
5.754128 2.5544281 0.81268007 1
1.9884684 2.9269691 -0.090754509 0
2.3621061 1.0778244 -0.12740624 0
8.3934622 -6.5924606 0.16207218 0
2.4949653 -0.24753492 -0.1605798 1
2.3769376 -1.7653679 -0.15480137 10
5.7302694 2.4781909 0.81509 25
9.0883713 -0.95781547 0.016926765 2
2.3872056 1.0641913 -0.14910793 0
8.277894 -6.6260548 0.19664633 0
2.5065 -0.27427867 -0.17370236 0
2.369483 -1.7975602 -0.1557759 10
5.75034 2.4229498 0.80912328 0
9.0350113 -1.0414279 0.030889392 0
2.4001644 1.0420457 -0.15700305 0
8.1318426 -6.6328874 0.23762405 12
2.5042448 -0.29957926 -0.17207003 0
5.1588044 7.1229453 1.2516894 0
2.3560743 -1.8243706 -0.15028191 2
5.7702765 2.3665569 0.80322134 22
9.0291691 -1.1323533 0.035020471 6
2.3946626 1.0083491 -0.14389575 0
7.9779129 -6.6320629 0.28023088 0
2.5050747 -0.32590562 -0.17394185 0
2.3499835 -1.8603899 -0.15365005 0
5.8034825 2.3151126 0.79470003 11
9.027091 -1.2252893 0.038665295 6
2.4043643 0.98344344 -0.14821291 0
7.7621746 -6.5725131 0.33508372 15
2.5055637 -0.35274079 -0.17569363 0
2.3431702 -1.896878 -0.15668404 5
5.8816371 2.2821414 0.77752209 11
9.0431728 -1.3228357 0.038681626 0
2.4108198 0.95638174 -0.14897096 0
7.5437984 -6.5066934 0.38989747 3
2.4957061 -0.3778874 -0.16634631 2
5.4472775 7.0849223 1.1719413 1
2.3228288 -1.9186852 -0.14413595 10
6.0414724 2.2816708 0.74431205 14
2.0962007 2.7019157 -0.099068403 0
9.0435133 -1.4195895 0.042148829 6
2.4077437 0.92384106 -0.13912249 0
7.3693175 -6.4791059 0.43560314 0
2.4922688 -0.404632 -0.16413736 2
2.3121855 -1.9527936 -0.14350021 11
6.2795396 2.3090723 0.69595861 24
2.1145768 2.6643348 -0.10104144 0
9.1341524 -1.5344837 0.027020216 0
2.4358509 0.90771538 -0.16434395 0
7.3042493 -6.5574093 0.4592911 14
2.4918592 -0.43246311 -0.16540885 3
